1.5972026e+02   1.7605556e+02   1.9006481e+02   2.0404025e+02   2.0604079e+02   2.0231127e+02   1.9535360e+02   1.9943475e+02   2.1250497e+02   2.3119306e+02   2.5155291e+02   2.7287759e+02   2.8807227e+02   2.9038092e+02   2.9149773e+02   3.0765682e+02   3.2925373e+02   3.4734632e+02   3.7161695e+02   3.8389883e+02   3.9732416e+02   4.0829266e+02   3.9825132e+02   3.9343553e+02   3.9716859e+02   4.0388772e+02   4.1500809e+02   4.3233709e+02   4.4923745e+02   4.3576956e+02   4.2461111e+02   4.0662268e+02   3.8620063e+02   3.6452780e+02   3.4512705e+02   3.2569561e+02   3.1430111e+02   3.1374145e+02   3.1437423e+02   3.1187051e+02   3.0294386e+02   2.8796357e+02   2.7817724e+02   2.7098213e+02   2.6910870e+02   2.6010314e+02   2.5043772e+02   2.4149571e+02   2.3656913e+02   2.4142039e+02   2.5202033e+02   2.4060558e+02   2.3387587e+02   2.3946793e+02   2.3605314e+02   2.2700980e+02   2.1704203e+02   2.1022705e+02   2.0726425e+02   2.0426240e+02   2.0130149e+02   1.9855726e+02   1.9188462e+02   1.7953709e+02   1.6640190e+02   1.5331177e+02   1.4559082e+02   1.4123175e+02   1.4065987e+02   1.4000000e+02   1.4758485e+02   1.6857679e+02   1.8715490e+02   2.0469971e+02   2.2583024e+02   2.5053187e+02   2.7130000e+02   2.8281091e+02   3.0182080e+02   3.1577746e+02   3.2342633e+02   3.3270308e+02   3.3280714e+02   3.2159250e+02   3.1709374e+02   3.1591842e+02   3.1529857e+02   3.0275031e+02   2.8932459e+02   2.7248463e+02   2.5771397e+02   2.5039368e+02   2.3251973e+02   2.3724808e+02   2.5602339e+02   2.7372088e+02   2.6370429e+02   2.4671542e+02   2.3051542e+02   2.1404118e+02   2.2893143e+02   2.3929325e+02   2.2851798e+02   2.0737961e+02   1.9719072e+02   2.1436447e+02   2.0534254e+02   2.0751089e+02   2.1140982e+02   2.0840797e+02   2.0439276e+02   1.9363846e+02   1.8979208e+02   1.9552217e+02   1.8751847e+02   1.7977931e+02   1.7300362e+02   1.7000000e+02   1.7396512e+02   1.7507810e+02   1.7602039e+02   1.7853423e+02   1.9693618e+02   2.1049239e+02   2.2117884e+02   2.2716058e+02   2.2147309e+02   2.1330746e+02   2.0430190e+02   1.9860361e+02   2.0366497e+02   2.1181830e+02   2.2054760e+02   2.3162091e+02   2.4254076e+02   2.5188565e+02   2.6083136e+02   2.7313472e+02   3.0019297e+02   3.1434561e+02   3.2293266e+02   3.2215171e+02   3.2630119e+02   3.3984939e+02   3.6470491e+02   4.0767836e+02   4.3495720e+02   4.3865733e+02   4.3531535e+02   4.3221650e+02   4.2868448e+02   4.2411917e+02   4.2650320e+02   4.4806854e+02   4.7008151e+02   4.8716174e+02   5.0189444e+02   5.0851566e+02   4.9214810e+02   4.7174602e+02   4.5062511e+02   4.4604505e+02   4.3624963e+02   4.1788026e+02   3.9321551e+02   3.8916695e+02   3.8764254e+02   3.8279347e+02   3.7090953e+02   3.6054530e+02   3.5840957e+02   3.5775835e+02   3.5408305e+02   3.5533635e+02   3.6868955e+02   3.8080044e+02   3.8724713e+02   3.9877874e+02   4.1346958e+02   4.2481777e+02   4.3138830e+02   4.4117520e+02   4.5406545e+02   4.6808087e+02   4.8343026e+02   4.9368026e+02
1.5944603e+02   1.7804444e+02   1.8974203e+02   1.9025263e+02   1.8925107e+02   1.8821732e+02   1.8355327e+02   1.8992427e+02   2.0614669e+02   2.2541533e+02   2.4979039e+02   2.6446180e+02   2.7024969e+02   2.6943947e+02   2.7587261e+02   2.9701257e+02   3.1885965e+02   3.3777353e+02   3.5329522e+02   3.5528839e+02   3.6729295e+02   3.8017108e+02   3.7819605e+02   3.7435090e+02   3.7748816e+02   3.8257865e+02   3.9897612e+02   4.1792815e+02   4.4183249e+02   4.3987203e+02   4.2570453e+02   4.0652711e+02   3.8445185e+02   3.6070740e+02   3.4291915e+02   3.2890989e+02   3.0858653e+02   2.9464307e+02   2.9434605e+02   2.9309728e+02   2.8835614e+02   2.8020835e+02   2.6653753e+02   2.6044854e+02   2.5808231e+02   2.4898433e+02   2.3815614e+02   2.2725300e+02   2.2353762e+02   2.2945263e+02   2.3635448e+02   2.2973352e+02   2.1835060e+02   2.2608586e+02   2.2000244e+02   2.0990161e+02   1.9699661e+02   1.8973201e+02   1.8464561e+02   1.8085385e+02   1.7805454e+02   1.7675673e+02   1.7128923e+02   1.5860914e+02   1.4887222e+02   1.4578906e+02   1.4501228e+02   1.4524035e+02   1.4395824e+02   1.4008062e+02   1.5146933e+02   1.8027981e+02   2.0400655e+02   2.2024035e+02   2.3738409e+02   2.5610278e+02   2.6670572e+02   2.7214030e+02   2.8451412e+02   2.8911152e+02   3.0214779e+02   3.1939503e+02   3.3679617e+02   3.4394568e+02   3.4031769e+02   3.3930044e+02   3.3469961e+02   3.1944488e+02   3.0260599e+02   2.8905457e+02   2.7964803e+02   2.6123020e+02   2.4419405e+02   2.5290736e+02   2.7467765e+02   2.8963294e+02   2.7087758e+02   2.4805556e+02   2.3187337e+02   2.2119803e+02   2.4136001e+02   2.5083209e+02   2.3525971e+02   2.1550447e+02   2.1262934e+02   2.2867247e+02   2.2348518e+02   2.2615809e+02   2.3611818e+02   2.3142855e+02   2.1828897e+02   2.0222626e+02   2.0507719e+02   2.1449717e+02   2.0605273e+02   1.9637558e+02   1.8939264e+02   1.8338894e+02   1.7657045e+02   1.7521591e+02   1.7500000e+02   1.7500000e+02   1.8292757e+02   1.9372671e+02   2.0011151e+02   2.0580504e+02   2.0729030e+02   1.9936827e+02   1.9330575e+02   1.9970785e+02   2.1478717e+02   2.2768488e+02   2.4176218e+02   2.5323377e+02   2.6123933e+02   2.6793743e+02   2.7112738e+02   2.8271578e+02   3.0768231e+02   3.2634509e+02   3.4536608e+02   3.4540884e+02   3.4604502e+02   3.5522022e+02   3.7902924e+02   4.0093289e+02   4.3561009e+02   4.5468146e+02   4.5518377e+02   4.5320856e+02   4.5165395e+02   4.5034444e+02   4.4401715e+02   4.4491683e+02   4.5872498e+02   4.7431501e+02   5.0051859e+02   5.1574947e+02   5.0956918e+02   4.9062144e+02   4.6999412e+02   4.4807778e+02   4.3217334e+02   4.1231804e+02   4.0106340e+02   4.0946196e+02   4.0658796e+02   3.9809111e+02   3.8546589e+02   3.7600950e+02   3.7236015e+02   3.7074737e+02   3.6945021e+02   3.6430575e+02   3.6119304e+02   3.7238640e+02   3.8634074e+02   3.9736232e+02   4.0321067e+02   4.1183746e+02   4.2589981e+02   4.3934560e+02   4.5019834e+02   4.6449300e+02   4.7956316e+02   4.8875760e+02
1.6663648e+02   1.7802162e+02   1.7981906e+02   1.7428856e+02   1.7125724e+02   1.7025724e+02   1.7349202e+02   1.8864980e+02   2.0722247e+02   2.2758760e+02   2.3946160e+02   2.5042439e+02   2.5433365e+02   2.5185572e+02   2.6566538e+02   2.8715136e+02   3.0708655e+02   3.2047415e+02   3.3041881e+02   3.3547504e+02   3.4247962e+02   3.5037631e+02   3.5576056e+02   3.5539036e+02   3.5992016e+02   3.6967058e+02   3.9046272e+02   4.1182858e+02   4.3411304e+02   4.4417898e+02   4.2449235e+02   4.0247939e+02   3.8199340e+02   3.6148675e+02   3.4458494e+02   3.2957568e+02   3.1258446e+02   2.9606450e+02   2.8179878e+02   2.7476769e+02   2.7217390e+02   2.6848836e+02   2.5757705e+02   2.4966038e+02   2.4408188e+02   2.3498961e+02   2.2560459e+02   2.1865396e+02   2.1274224e+02   2.1288421e+02   2.1772999e+02   2.1590267e+02   2.0293721e+02   2.0474347e+02   2.0693172e+02   1.9533516e+02   1.8185933e+02   1.6996674e+02   1.6367384e+02   1.6024873e+02   1.5831118e+02   1.5712069e+02   1.5130170e+02   1.5000000e+02   1.4939920e+02   1.4724452e+02   1.5269706e+02   1.5331425e+02   1.4725660e+02   1.4232511e+02   1.4853019e+02   1.7234272e+02   1.9626308e+02   2.1557476e+02   2.3104267e+02   2.4557890e+02   2.5436513e+02   2.5566884e+02   2.6377230e+02   2.7138680e+02   2.8522663e+02   3.0170979e+02   3.1711674e+02   3.3204012e+02   3.4108983e+02   3.4574342e+02   3.4441473e+02   3.3094420e+02   3.1917215e+02   3.0969357e+02   2.9452456e+02   2.7060794e+02   2.6053079e+02   2.7490771e+02   2.9444518e+02   3.0387554e+02   2.7908387e+02   2.5091878e+02   2.3615419e+02   2.3446245e+02   2.5480154e+02   2.6418036e+02   2.4544598e+02   2.2848882e+02   2.3134832e+02   2.4497597e+02   2.4945064e+02   2.5125142e+02   2.5963249e+02   2.4974137e+02   2.2634560e+02   2.0994807e+02   2.1594372e+02   2.3322758e+02   2.2675704e+02   2.1454912e+02   2.0882159e+02   2.0281788e+02   1.9493940e+02   1.9005250e+02   1.8123831e+02   1.7500000e+02   1.7594340e+02   1.8178103e+02   1.8565797e+02   1.8765982e+02   1.8895384e+02   1.8831931e+02   1.9663962e+02   2.1565073e+02   2.3471579e+02   2.5056350e+02   2.6105665e+02   2.7072690e+02   2.7746104e+02   2.8833550e+02   2.9386628e+02   2.9672648e+02   3.1216981e+02   3.3591509e+02   3.5906502e+02   3.6910166e+02   3.7455943e+02   3.8236661e+02   3.8934212e+02   4.0868534e+02   4.3732327e+02   4.6462487e+02   4.6855479e+02   4.6821579e+02   4.6940551e+02   4.7142197e+02   4.7132368e+02   4.7032368e+02   4.7223043e+02   4.8438177e+02   5.0526664e+02   5.2160789e+02   5.2229678e+02   5.0298197e+02   4.7868639e+02   4.4844276e+02   4.3288834e+02   4.1841127e+02   4.2125771e+02   4.2600363e+02   4.2473882e+02   4.1494172e+02   4.0144511e+02   3.9036498e+02   3.8958947e+02   3.8754635e+02   3.8733457e+02   3.8385585e+02   3.7176409e+02   3.6854496e+02   3.7789766e+02   3.8587978e+02   3.9365878e+02   4.1138519e+02   4.2850080e+02   4.3610797e+02   4.4262178e+02   4.5634328e+02   4.7522303e+02   4.8289050e+02
1.6905909e+02   1.7507895e+02   1.7015899e+02   1.6119240e+02   1.5238662e+02   1.5528704e+02   1.7308275e+02   1.9205439e+02   2.1105872e+02   2.1820872e+02   2.2428180e+02   2.3233558e+02   2.3527507e+02   2.3928377e+02   2.5732953e+02   2.7534600e+02   2.9043187e+02   3.0043928e+02   3.1136462e+02   3.1736520e+02   3.2432943e+02   3.3033314e+02   3.3537434e+02   3.3929903e+02   3.4833324e+02   3.6346564e+02   3.8646153e+02   4.1137534e+02   4.3544942e+02   4.4449878e+02   4.1958577e+02   3.9757281e+02   3.7653350e+02   3.5080049e+02   3.3582953e+02   3.2278265e+02   3.0977225e+02   2.9676360e+02   2.8364515e+02   2.7271608e+02   2.6279605e+02   2.5394518e+02   2.4689678e+02   2.3989123e+02   2.3288567e+02   2.2580117e+02   2.1789006e+02   2.0996530e+02   2.0286732e+02   1.9718026e+02   1.9635928e+02   1.9724747e+02   1.9459898e+02   1.8386131e+02   1.9294854e+02   1.8168567e+02   1.6963701e+02   1.6276584e+02   1.6096053e+02   1.6083275e+02   1.6076316e+02   1.6075351e+02   1.5948533e+02   1.5780760e+02   1.5880263e+02   1.5880775e+02   1.6201306e+02   1.5965439e+02   1.5261121e+02   1.4582890e+02   1.4501645e+02   1.5800234e+02   1.7537758e+02   1.9395906e+02   2.1029462e+02   2.3008041e+02   2.4200789e+02   2.3838869e+02   2.4565848e+02   2.5597515e+02   2.7079374e+02   2.8484069e+02   2.9692712e+02   3.1096764e+02   3.1964542e+02   3.2580921e+02   3.3276857e+02   3.3999327e+02   3.3825329e+02   3.2583713e+02   3.0347417e+02   2.8536111e+02   2.8289976e+02   2.9355214e+02   3.1174474e+02   3.2153363e+02   2.9658733e+02   2.6697675e+02   2.4619094e+02   2.4792632e+02   2.6692982e+02   2.7778168e+02   2.5910685e+02   2.4272368e+02   2.4871701e+02   2.6871711e+02   2.7728940e+02   2.7870244e+02   2.7452412e+02   2.5681769e+02   2.3668141e+02   2.1718918e+02   2.2261491e+02   2.4509649e+02   2.4359106e+02   2.3127047e+02   2.2863589e+02   2.2104591e+02   2.0814978e+02   2.0776316e+02   2.0178862e+02   1.8709342e+02   1.7912605e+02   1.8000000e+02   1.8007895e+02   1.8252096e+02   1.8523302e+02   1.9453392e+02   2.1228041e+02   2.3054946e+02   2.5233224e+02   2.6777057e+02   2.8074851e+02   2.9273582e+02   3.0191231e+02   3.0754094e+02   3.1501396e+02   3.1921014e+02   3.2608723e+02   3.4869035e+02   3.6682956e+02   3.8518328e+02   3.9706330e+02   4.0591881e+02   4.0762295e+02   4.1841228e+02   4.4167788e+02   4.7558421e+02   4.8372368e+02   4.8468421e+02   4.8473501e+02   4.8605205e+02   4.8872368e+02   4.9092578e+02   4.9640965e+02   5.0584162e+02   5.1792805e+02   5.3072632e+02   5.2968981e+02   5.1084103e+02   4.8255117e+02   4.5459303e+02   4.4611065e+02   4.3764474e+02   4.3899717e+02   4.4073611e+02   4.3811732e+02   4.3107407e+02   4.1684094e+02   4.0375044e+02   4.0673648e+02   4.0345010e+02   4.0481557e+02   3.9919396e+02   3.7926365e+02   3.7586842e+02   3.7823000e+02   3.8001330e+02   3.8682624e+02   3.9995400e+02   4.1564669e+02   4.2354181e+02   4.3314306e+02   4.5212836e+02   4.6786842e+02   4.7706506e+02
1.5165432e+02   1.5568062e+02   1.5884462e+02   1.5197618e+02   1.4461249e+02   1.5731187e+02   1.7791038e+02   1.9429668e+02   2.0226552e+02   2.0526737e+02   2.0890292e+02   2.1387700e+02   2.1813646e+02   2.3118314e+02   2.4400943e+02   2.5760144e+02   2.6860885e+02   2.7960020e+02   2.8975032e+02   2.9351525e+02   3.0261042e+02   3.1194366e+02   3.1796707e+02   3.2669239e+02   3.4273746e+02   3.6317705e+02   3.8687596e+02   4.1332149e+02   4.4033816e+02   4.4358407e+02   4.2290110e+02   4.0074184e+02   3.8109669e+02   3.6098489e+02   3.4460928e+02   3.2622164e+02   3.1240853e+02   2.9808297e+02   2.8458065e+02   2.7938124e+02   2.6981606e+02   2.5743952e+02   2.5215610e+02   2.4445240e+02   2.4127373e+02   2.3539113e+02   2.2561262e+02   2.1642167e+02   2.1097188e+02   1.9996447e+02   1.8883654e+02   1.8150222e+02   1.7668985e+02   1.7321184e+02   1.7750312e+02   1.7094583e+02   1.6500000e+02   1.6692076e+02   1.7513304e+02   1.7615263e+02   1.7607970e+02   1.7415263e+02   1.7270966e+02   1.7183485e+02   1.7375855e+02   1.7275855e+02   1.7278710e+02   1.6683478e+02   1.6222929e+02   1.5709040e+02   1.4942604e+02   1.4637093e+02   1.5952069e+02   1.7614491e+02   1.9674035e+02   2.1906664e+02   2.3082049e+02   2.2318146e+02   2.3182370e+02   2.4575110e+02   2.6043980e+02   2.6793107e+02   2.7893662e+02   2.8854810e+02   2.9441888e+02   2.9957478e+02   3.0958785e+02   3.2259061e+02   3.3611571e+02   3.3447262e+02   3.2156048e+02   3.0936893e+02   3.0951450e+02   3.1791776e+02   3.3063148e+02   3.3293521e+02   3.0716445e+02   2.8125409e+02   2.6318633e+02   2.6185746e+02   2.7793743e+02   2.8879113e+02   2.7434545e+02   2.5856447e+02   2.6797965e+02   2.8398891e+02   2.9758706e+02   2.9806346e+02   2.7992926e+02   2.6125606e+02   2.3780615e+02   2.2314371e+02   2.2804685e+02   2.5187742e+02   2.5622449e+02   2.4462390e+02   2.4709856e+02   2.3691989e+02   2.1874262e+02   2.2491423e+02   2.1922671e+02   2.0607792e+02   1.9237078e+02   1.8150334e+02   1.8000000e+02   1.8233561e+02   1.8872778e+02   2.0231855e+02   2.1823148e+02   2.3713112e+02   2.5824260e+02   2.8128593e+02   2.9887335e+02   3.1282449e+02   3.2495112e+02   3.3124747e+02   3.3790636e+02   3.4486785e+02   3.4913873e+02   3.6303706e+02   3.7570707e+02   3.9346891e+02   4.1348187e+02   4.3044848e+02   4.3504011e+02   4.4233651e+02   4.5608419e+02   4.7145162e+02   4.7713161e+02   4.8803310e+02   4.8762945e+02   4.8023279e+02   4.8210760e+02   4.9324835e+02   5.0509518e+02   5.1498397e+02   5.2050841e+02   5.2435375e+02   5.3417618e+02   5.1957007e+02   4.9958163e+02   4.8259002e+02   4.7103232e+02   4.5740447e+02   4.5226335e+02   4.5145225e+02   4.4946185e+02   4.4380300e+02   4.3182101e+02   4.2653011e+02   4.2650448e+02   4.2209234e+02   4.1997383e+02   4.0607456e+02   3.8411757e+02   3.8910175e+02   3.9581745e+02   3.9126996e+02   3.8238107e+02   3.9036834e+02   4.0166148e+02   4.1579519e+02   4.3076109e+02   4.4495347e+02   4.5942984e+02   4.7142504e+02
1.3454365e+02   1.3656243e+02   1.4139414e+02   1.4101429e+02   1.4114138e+02   1.6192661e+02   1.7573724e+02   1.8140500e+02   1.8274776e+02   1.8577554e+02   1.9162507e+02   1.9826584e+02   2.0616556e+02   2.1664557e+02   2.2472724e+02   2.3953348e+02   2.5152780e+02   2.6150117e+02   2.6949938e+02   2.7637670e+02   2.8817310e+02   2.9717036e+02   3.1028276e+02   3.2684586e+02   3.4619430e+02   3.6621652e+02   3.9033440e+02   4.1719881e+02   4.4498189e+02   4.4383585e+02   4.2643874e+02   4.0931044e+02   3.9207178e+02   3.7406067e+02   3.5622193e+02   3.3613674e+02   3.1737208e+02   3.0058089e+02   2.9631053e+02   2.9008953e+02   2.7355461e+02   2.6937903e+02   2.7061764e+02   2.5736877e+02   2.5877519e+02   2.5070397e+02   2.4182251e+02   2.3728929e+02   2.2849197e+02   2.1391053e+02   1.9976615e+02   1.8967255e+02   1.8099386e+02   1.7163133e+02   1.7000000e+02   1.6688889e+02   1.6780231e+02   1.7940526e+02   1.8902675e+02   1.9273957e+02   1.9372067e+02   1.9322531e+02   1.8684172e+02   1.8591935e+02   1.8879342e+02   1.8683616e+02   1.8202490e+02   1.7583246e+02   1.7483060e+02   1.6957830e+02   1.6072149e+02   1.5302904e+02   1.5002458e+02   1.5839006e+02   1.8074690e+02   2.0524362e+02   2.1707895e+02   2.1146359e+02   2.2312108e+02   2.3986503e+02   2.4540608e+02   2.5080306e+02   2.6530615e+02   2.7260137e+02   2.7636384e+02   2.8136754e+02   2.9270443e+02   3.0754332e+02   3.2055073e+02   3.3148710e+02   3.2970880e+02   3.2629968e+02   3.3281119e+02   3.3750112e+02   3.4435309e+02   3.4069742e+02   3.1984390e+02   2.9500531e+02   2.8590934e+02   2.7982662e+02   2.9000493e+02   3.0119051e+02   2.8748378e+02   2.7463474e+02   2.8417690e+02   3.0098431e+02   3.1220902e+02   2.9775627e+02   2.7805311e+02   2.5708042e+02   2.4612171e+02   2.3427088e+02   2.3399956e+02   2.5457578e+02   2.7163146e+02   2.6405409e+02   2.6398745e+02   2.4836969e+02   2.2932667e+02   2.3967236e+02   2.3569513e+02   2.2368772e+02   2.1127276e+02   1.9706732e+02   1.8251968e+02   1.8165385e+02   1.8765755e+02   2.0056696e+02   2.1665015e+02   2.3677981e+02   2.5900000e+02   2.8526667e+02   3.0730612e+02   3.2440010e+02   3.4359386e+02   3.5231194e+02   3.5953175e+02   3.6705638e+02   3.6993151e+02   3.7864623e+02   3.9413601e+02   4.1041564e+02   4.2714852e+02   4.4145406e+02   4.4876320e+02   4.4293823e+02   4.3872368e+02   4.4156813e+02   4.5462325e+02   4.7077695e+02   4.7098473e+02   4.6187865e+02   4.5431069e+02   4.6477183e+02   4.8531798e+02   4.9945443e+02   5.0245334e+02   5.0635487e+02   5.2179329e+02   5.2948690e+02   5.1649068e+02   5.0542049e+02   4.9574785e+02   4.8599825e+02   4.8110395e+02   4.7887861e+02   4.6295270e+02   4.5410947e+02   4.4939346e+02   4.4768741e+02   4.4270469e+02   4.3663986e+02   4.3005591e+02   4.1190268e+02   3.9082089e+02   3.9948289e+02   4.0813816e+02   4.0390428e+02   3.8907180e+02   3.8924933e+02   4.0163092e+02   4.1083551e+02   4.2053363e+02   4.3677836e+02   4.5266882e+02   4.6610909e+02
1.1922571e+02   1.2321935e+02   1.2624237e+02   1.3023513e+02   1.3884242e+02   1.5148361e+02   1.5847364e+02   1.6371630e+02   1.6624681e+02   1.7179744e+02   1.8135903e+02   1.9287244e+02   2.0313096e+02   2.1088355e+02   2.1860193e+02   2.2665117e+02   2.3762303e+02   2.4834931e+02   2.5865913e+02   2.6891659e+02   2.8123148e+02   2.9524074e+02   3.1226306e+02   3.3032465e+02   3.4989829e+02   3.7092577e+02   3.9599662e+02   4.2231689e+02   4.4930633e+02   4.4242400e+02   4.2639781e+02   4.0907763e+02   3.9206652e+02   3.7431659e+02   3.5630548e+02   3.3850083e+02   3.1982546e+02   3.0856711e+02   3.0808427e+02   2.9469081e+02   2.7843279e+02   2.8645428e+02   2.7691311e+02   2.7259959e+02   2.7543036e+02   2.7384884e+02   2.6708777e+02   2.5637322e+02   2.3967230e+02   2.2042612e+02   2.0970830e+02   2.0462992e+02   1.9162251e+02   1.8016716e+02   1.7141311e+02   1.6926118e+02   1.7220015e+02   1.9047244e+02   2.0453925e+02   2.0980414e+02   2.1356711e+02   2.0920044e+02   1.9914944e+02   1.9829659e+02   2.0314477e+02   1.9752429e+02   1.9294760e+02   1.9156711e+02   1.8996493e+02   1.7783718e+02   1.6714198e+02   1.6013691e+02   1.5022394e+02   1.5035788e+02   1.6701755e+02   1.9257939e+02   2.0132207e+02   2.0338081e+02   2.1983734e+02   2.2832727e+02   2.3137023e+02   2.4053197e+02   2.5643860e+02   2.5996618e+02   2.5606507e+02   2.6604978e+02   2.8066118e+02   2.9259201e+02   3.0612178e+02   3.1342980e+02   3.0607683e+02   3.0688602e+02   3.2310668e+02   3.3235586e+02   3.3583268e+02   3.3856089e+02   3.3343889e+02   3.2265289e+02   3.1256199e+02   3.0474903e+02   3.0374368e+02   3.1453824e+02   3.0360982e+02   2.9509842e+02   3.0456177e+02   3.2053670e+02   3.2108348e+02   2.9727792e+02   2.7773726e+02   2.6956711e+02   2.6718940e+02   2.5306340e+02   2.3975371e+02   2.5928492e+02   2.8468178e+02   2.8580921e+02   2.7821503e+02   2.5575022e+02   2.4276148e+02   2.5619602e+02   2.5264118e+02   2.4112829e+02   2.2941718e+02   2.1412074e+02   1.9604908e+02   1.8443905e+02   1.8517923e+02   1.9373022e+02   2.1239856e+02   2.3421467e+02   2.5692352e+02   2.8067852e+02   3.0399237e+02   3.2319977e+02   3.4508553e+02   3.6170621e+02   3.7485146e+02   3.8596921e+02   3.9175380e+02   4.0067851e+02   4.1410075e+02   4.2686963e+02   4.3291053e+02   4.3230368e+02   4.2508275e+02   4.1728242e+02   4.1266779e+02   4.1702464e+02   4.2975297e+02   4.4626771e+02   4.5372431e+02   4.4362712e+02   4.2717335e+02   4.4249888e+02   4.6641710e+02   4.7839062e+02   4.7764934e+02   4.8418888e+02   5.0046702e+02   5.2091461e+02   5.2421645e+02   5.2028458e+02   5.1494859e+02   5.0689496e+02   5.0114125e+02   5.0012889e+02   4.8572259e+02   4.6916114e+02   4.6009963e+02   4.5828431e+02   4.5413540e+02   4.4780577e+02   4.3588348e+02   4.1779924e+02   3.9577693e+02   4.0418904e+02   4.1829238e+02   4.1143540e+02   3.9817762e+02   3.9102222e+02   4.0168519e+02   4.0907807e+02   4.1716392e+02   4.3082770e+02   4.4910000e+02   4.6339536e+02
1.1330809e+02   1.1662164e+02   1.1962349e+02   1.2565045e+02   1.3334368e+02   1.3863470e+02   1.4429632e+02   1.5438058e+02   1.6447842e+02   1.7520593e+02   1.9090936e+02   2.0528694e+02   2.1624099e+02   2.2426842e+02   2.3296871e+02   2.4024250e+02   2.4460865e+02   2.5098538e+02   2.6062747e+02   2.7026199e+02   2.8258879e+02   2.9627419e+02   3.1299474e+02   3.3205770e+02   3.5307066e+02   3.7421637e+02   4.0229561e+02   4.2861754e+02   4.5000000e+02   4.4027649e+02   4.2391637e+02   4.0521053e+02   3.8791507e+02   3.7023719e+02   3.5317719e+02   3.3693489e+02   3.2242060e+02   3.2088690e+02   3.1457542e+02   2.9420998e+02   2.9247632e+02   3.0212480e+02   2.8391464e+02   2.8689099e+02   2.9407768e+02   2.8728830e+02   2.7125468e+02   2.5164327e+02   2.3439509e+02   2.2267895e+02   2.2174786e+02   2.1546784e+02   2.0435673e+02   1.9027470e+02   1.7786569e+02   1.7227836e+02   1.7818021e+02   1.9815813e+02   2.1732667e+02   2.2640546e+02   2.3135331e+02   2.2598480e+02   2.1340673e+02   2.1359961e+02   2.1561216e+02   2.0960975e+02   2.0734220e+02   2.0738105e+02   1.9971355e+02   1.8470429e+02   1.7394532e+02   1.6792429e+02   1.5421665e+02   1.4908819e+02   1.5753772e+02   1.8206121e+02   1.8724105e+02   1.9641614e+02   2.1146860e+02   2.1487906e+02   2.1814639e+02   2.2978713e+02   2.4731491e+02   2.4564795e+02   2.4390468e+02   2.5958246e+02   2.6783058e+02   2.7612359e+02   2.9087830e+02   2.9435634e+02   2.8165419e+02   2.8506105e+02   3.0572973e+02   3.1513684e+02   3.1662544e+02   3.1993255e+02   3.2387731e+02   3.2692000e+02   3.3065257e+02   3.2817271e+02   3.2411696e+02   3.3119583e+02   3.2960452e+02   3.2474737e+02   3.2877398e+02   3.3594327e+02   3.2709339e+02   3.0487431e+02   2.8768331e+02   2.8623287e+02   2.8383480e+02   2.7223509e+02   2.5041175e+02   2.6420433e+02   2.8961080e+02   3.0333450e+02   2.8874949e+02   2.6804086e+02   2.7179240e+02   2.7539836e+02   2.6947398e+02   2.6116316e+02   2.4975731e+02   2.3005146e+02   2.1133023e+02   1.9048148e+02   1.8500000e+02   1.8861754e+02   2.0763986e+02   2.2865283e+02   2.5336053e+02   2.7562534e+02   2.9838645e+02   3.1701602e+02   3.3337039e+02   3.5264250e+02   3.6691158e+02   3.8440936e+02   4.0091573e+02   4.0918667e+02   4.1372700e+02   4.1305263e+02   4.1354702e+02   4.1466370e+02   4.1050076e+02   4.0161228e+02   3.8855331e+02   3.9639789e+02   4.0846930e+02   4.2447856e+02   4.3581676e+02   4.2697895e+02   4.1181706e+02   4.2093930e+02   4.4840450e+02   4.5444211e+02   4.5016164e+02   4.6484000e+02   4.8482246e+02   4.9883540e+02   5.0744269e+02   5.1304729e+02   5.1865476e+02   5.1990503e+02   5.2064573e+02   5.1521442e+02   5.0243842e+02   4.9682363e+02   4.8901495e+02   4.7660082e+02   4.6037066e+02   4.5371696e+02   4.4072807e+02   4.2126234e+02   4.0172651e+02   4.1390877e+02   4.2877895e+02   4.1963318e+02   4.0804830e+02   3.9723696e+02   4.0226579e+02   4.1441696e+02   4.2745752e+02   4.3477357e+02   4.5128105e+02   4.6959006e+02
1.1050841e+02   1.1313940e+02   1.1588301e+02   1.2054230e+02   1.2924907e+02   1.3149159e+02   1.5020977e+02   1.6222003e+02   1.7448116e+02   1.8751450e+02   2.0355510e+02   2.2079340e+02   2.3605947e+02   2.4899803e+02   2.5710120e+02   2.6451754e+02   2.7206520e+02   2.7515461e+02   2.7636808e+02   2.8837113e+02   2.9711891e+02   3.0826706e+02   3.2414803e+02   3.4312605e+02   3.6095678e+02   3.8206159e+02   4.0877325e+02   4.3478991e+02   4.4993105e+02   4.3750201e+02   4.2048282e+02   4.0247171e+02   3.8558889e+02   3.6837912e+02   3.4851060e+02   3.3457541e+02   3.2729962e+02   3.3511100e+02   3.1994553e+02   2.9892939e+02   3.1048629e+02   3.1573031e+02   2.9993949e+02   3.0748114e+02   3.0186330e+02   2.8204770e+02   2.6349391e+02   2.5110266e+02   2.4731304e+02   2.4518289e+02   2.4183598e+02   2.2736620e+02   2.1398538e+02   2.0016338e+02   1.8696686e+02   1.7815972e+02   1.8506265e+02   2.0706028e+02   2.2874156e+02   2.4212529e+02   2.4640071e+02   2.3615256e+02   2.2578565e+02   2.2902395e+02   2.2978715e+02   2.2421637e+02   2.2250997e+02   2.1997982e+02   2.0569160e+02   1.9184547e+02   1.8297880e+02   1.7683436e+02   1.6278190e+02   1.5052931e+02   1.5438335e+02   1.6582286e+02   1.7610609e+02   1.8935491e+02   1.9951226e+02   2.0237851e+02   2.0711647e+02   2.2014431e+02   2.3037071e+02   2.3021650e+02   2.3560402e+02   2.4821327e+02   2.4784550e+02   2.6050906e+02   2.7734795e+02   2.7759414e+02   2.6372505e+02   2.7073129e+02   2.9259292e+02   2.9917707e+02   2.9851837e+02   3.0271711e+02   3.0579985e+02   3.1246053e+02   3.2605568e+02   3.3628192e+02   3.4465415e+02   3.5111951e+02   3.5178373e+02   3.4623684e+02   3.4766070e+02   3.4923465e+02   3.3440811e+02   3.1570680e+02   3.0420192e+02   3.0299923e+02   2.9529273e+02   2.7896769e+02   2.6223591e+02   2.6878621e+02   2.9433993e+02   3.1266411e+02   3.0255358e+02   2.8477141e+02   2.9293743e+02   2.9569535e+02   2.8820358e+02   2.8006974e+02   2.6709327e+02   2.4498219e+02   2.2587158e+02   2.0295626e+02   1.8598286e+02   1.8734137e+02   2.0161710e+02   2.2244862e+02   2.4777549e+02   2.6915855e+02   2.9119767e+02   3.0386864e+02   3.1477471e+02   3.3330434e+02   3.5618180e+02   3.7432120e+02   3.9352918e+02   4.0102346e+02   3.9365878e+02   3.8793900e+02   3.9038984e+02   3.9628292e+02   3.9540249e+02   3.8256360e+02   3.6595063e+02   3.7433767e+02   3.9257928e+02   4.1152790e+02   4.2326072e+02   4.0904269e+02   3.9730172e+02   4.1091227e+02   4.2462703e+02   4.3225451e+02   4.3254092e+02   4.5301513e+02   4.7361680e+02   4.8111014e+02   4.8519993e+02   4.9394673e+02   5.0246391e+02   5.0873882e+02   5.1722554e+02   5.2491210e+02   5.1926469e+02   5.1277332e+02   5.0393400e+02   4.8164949e+02   4.6263435e+02   4.5460982e+02   4.3953522e+02   4.1985022e+02   4.1113288e+02   4.2717982e+02   4.3747016e+02   4.3067357e+02   4.2328589e+02   4.1045049e+02   4.0589781e+02   4.1642197e+02   4.2938519e+02   4.4117273e+02   4.5705658e+02   4.7770913e+02
1.1979069e+02   1.1612368e+02   1.1556184e+02   1.1500649e+02   1.1789298e+02   1.2238855e+02   1.4220077e+02   1.5727968e+02   1.7130061e+02   1.8488226e+02   2.0250892e+02   2.2452188e+02   2.4548957e+02   2.5741447e+02   2.6685819e+02   2.7788455e+02   2.8866147e+02   2.9789069e+02   3.0401808e+02   3.0950439e+02   3.1750994e+02   3.2956365e+02   3.4364914e+02   3.6168216e+02   3.7863957e+02   3.9419123e+02   4.1552554e+02   4.4065702e+02   4.5325629e+02   4.3721165e+02   4.2017295e+02   4.0160000e+02   3.8558889e+02   3.6747657e+02   3.4616015e+02   3.3557900e+02   3.3546576e+02   3.4458434e+02   3.3028601e+02   3.1494792e+02   3.3335987e+02   3.3849591e+02   3.3127771e+02   3.1424310e+02   2.9427039e+02   2.8171859e+02   2.7659460e+02   2.7252212e+02   2.6895843e+02   2.6523855e+02   2.5522089e+02   2.3800504e+02   2.2059591e+02   2.0602481e+02   1.9151509e+02   1.8000000e+02   1.9142677e+02   2.1086288e+02   2.3076555e+02   2.4991740e+02   2.5395057e+02   2.4544254e+02   2.3844115e+02   2.4293514e+02   2.4624327e+02   2.4380327e+02   2.4072754e+02   2.2876184e+02   2.1182668e+02   1.9701369e+02   1.8822321e+02   1.8292128e+02   1.7353441e+02   1.6066959e+02   1.5500000e+02   1.5506491e+02   1.6038125e+02   1.7664635e+02   1.8341184e+02   1.8578450e+02   1.9397783e+02   2.0745945e+02   2.1582322e+02   2.1719027e+02   2.3016963e+02   2.3538750e+02   2.3725819e+02   2.5089854e+02   2.6746844e+02   2.6175858e+02   2.4767555e+02   2.6099708e+02   2.8098801e+02   2.8542575e+02   2.8386309e+02   2.8238158e+02   2.8475565e+02   2.9455583e+02   3.1102081e+02   3.2504555e+02   3.4402855e+02   3.6148159e+02   3.7071739e+02   3.6986789e+02   3.6705658e+02   3.6144179e+02   3.4613772e+02   3.3308708e+02   3.2542880e+02   3.1761911e+02   3.0184994e+02   2.8419986e+02   2.7459450e+02   2.7602458e+02   3.0035193e+02   3.2035848e+02   3.1659066e+02   2.9910349e+02   3.0515848e+02   3.1201241e+02   3.0621619e+02   2.9508070e+02   2.7940655e+02   2.5758811e+02   2.3781404e+02   2.1632144e+02   1.9373180e+02   1.8900000e+02   1.9576274e+02   2.1725648e+02   2.3981447e+02   2.6001189e+02   2.7450122e+02   2.8397735e+02   2.9858632e+02   3.2177149e+02   3.4814225e+02   3.6742157e+02   3.7959673e+02   3.8153377e+02   3.7482339e+02   3.6620667e+02   3.6574382e+02   3.7488933e+02   3.8010844e+02   3.6812266e+02   3.4916854e+02   3.5963119e+02   3.7517458e+02   3.9709142e+02   4.0747991e+02   3.9812994e+02   3.8148524e+02   3.9742375e+02   4.0268135e+02   4.0860931e+02   4.2494703e+02   4.5079329e+02   4.6202977e+02   4.5917477e+02   4.6233604e+02   4.7456218e+02   4.8412378e+02   4.9112749e+02   5.0180776e+02   5.1837990e+02   5.2972250e+02   5.1910881e+02   5.0483631e+02   4.7921594e+02   4.6273162e+02   4.5246038e+02   4.3358187e+02   4.2102002e+02   4.2661741e+02   4.3791404e+02   4.4824737e+02   4.4613514e+02   4.3835439e+02   4.2983887e+02   4.1732767e+02   4.1793962e+02   4.3094703e+02   4.4415004e+02   4.6272704e+02   4.8267295e+02
1.3393999e+02   1.2397507e+02   1.2099073e+02   1.1997144e+02   1.1900746e+02   1.2003704e+02   1.2810000e+02   1.3909450e+02   1.5217668e+02   1.7021348e+02   1.8921760e+02   2.1123504e+02   2.2719425e+02   2.4013669e+02   2.4913319e+02   2.6224525e+02   2.8020826e+02   2.9314064e+02   3.0119320e+02   3.0915175e+02   3.2024508e+02   3.3629788e+02   3.5534977e+02   3.7629730e+02   3.9430355e+02   4.1025501e+02   4.2633089e+02   4.4336043e+02   4.5475095e+02   4.3968058e+02   4.2260651e+02   4.0359079e+02   3.8658460e+02   3.6850280e+02   3.5283186e+02   3.4889369e+02   3.4527607e+02   3.6004979e+02   3.4816226e+02   3.3029444e+02   3.4747237e+02   3.5338646e+02   3.3139535e+02   3.1091285e+02   3.0884939e+02   3.0584754e+02   3.0293970e+02   3.0064708e+02   2.9036732e+02   2.7050921e+02   2.5439810e+02   2.3738651e+02   2.2047683e+02   2.0546757e+02   1.9145831e+02   1.8509269e+02   1.9766396e+02   2.1467968e+02   2.3169593e+02   2.5047353e+02   2.5887042e+02   2.5374118e+02   2.5310105e+02   2.5722883e+02   2.6097697e+02   2.5898098e+02   2.5233278e+02   2.3405746e+02   2.1531947e+02   2.0044725e+02   1.9911126e+02   1.9555871e+02   1.8441121e+02   1.7154825e+02   1.6268899e+02   1.5669586e+02   1.5615069e+02   1.6031501e+02   1.6717673e+02   1.6933414e+02   1.7996675e+02   1.9481472e+02   2.0317953e+02   2.1281942e+02   2.2301457e+02   2.2318893e+02   2.2686024e+02   2.4503222e+02   2.5785239e+02   2.4633894e+02   2.3754918e+02   2.5507670e+02   2.6739610e+02   2.7003224e+02   2.6884430e+02   2.6602217e+02   2.6740257e+02   2.7916557e+02   2.9897673e+02   3.1398971e+02   3.3377213e+02   3.5838328e+02   3.8018246e+02   3.9096132e+02   3.8635393e+02   3.7515295e+02   3.6134554e+02   3.5233633e+02   3.4312248e+02   3.2992142e+02   3.1169822e+02   2.9832233e+02   2.8988282e+02   2.8707417e+02   3.0774915e+02   3.2809730e+02   3.3208068e+02   3.1928999e+02   3.1843002e+02   3.2575301e+02   3.1483445e+02   3.0082873e+02   2.8481947e+02   2.6732692e+02   2.4532317e+02   2.2506486e+02   2.0304433e+02   1.8900000e+02   1.9447891e+02   2.1224995e+02   2.3001497e+02   2.4503504e+02   2.5878414e+02   2.7404670e+02   3.0353642e+02   3.1930210e+02   3.3459430e+02   3.5134245e+02   3.6228906e+02   3.6375974e+02   3.5722579e+02   3.4497503e+02   3.3987277e+02   3.5622565e+02   3.6348626e+02   3.5053019e+02   3.2988034e+02   3.4272443e+02   3.6172763e+02   3.8017560e+02   3.8933309e+02   3.8857592e+02   3.6956220e+02   3.7820856e+02   3.8421191e+02   4.0137822e+02   4.2638195e+02   4.4632257e+02   4.4543314e+02   4.3843404e+02   4.4586736e+02   4.5864988e+02   4.6497701e+02   4.7627525e+02   4.9289159e+02   5.0958789e+02   5.2296842e+02   5.2008575e+02   5.0307925e+02   4.7777778e+02   4.6402629e+02   4.4837347e+02   4.3301055e+02   4.3628937e+02   4.4296929e+02   4.4665285e+02   4.5832137e+02   4.5864454e+02   4.5330380e+02   4.4561401e+02   4.3260963e+02   4.2333221e+02   4.3372688e+02   4.4908108e+02   4.6844079e+02   4.8810190e+02
1.5526170e+02   1.4338713e+02   1.3441862e+02   1.2983090e+02   1.2556654e+02   1.2170785e+02   1.2501163e+02   1.2717702e+02   1.3552261e+02   1.4699226e+02   1.6991689e+02   1.9088830e+02   2.0672583e+02   2.2071605e+02   2.3493936e+02   2.5534844e+02   2.6954851e+02   2.7718021e+02   2.8373879e+02   2.9423865e+02   3.0906689e+02   3.2269455e+02   3.3883987e+02   3.5844179e+02   3.8071787e+02   3.9670409e+02   4.1279538e+02   4.3263977e+02   4.4963216e+02   4.4307818e+02   4.2646901e+02   4.0833404e+02   3.8684634e+02   3.6774734e+02   3.7371813e+02   3.6820331e+02   3.5649180e+02   3.7322251e+02   3.5955317e+02   3.4530770e+02   3.5960899e+02   3.5813987e+02   3.3633754e+02   3.3334023e+02   3.3496371e+02   3.3039829e+02   3.1915276e+02   3.0519037e+02   2.8444298e+02   2.6311316e+02   2.4616021e+02   2.3019464e+02   2.1662306e+02   2.0589191e+02   1.9165670e+02   1.8823889e+02   2.0234511e+02   2.1892648e+02   2.3550785e+02   2.5219090e+02   2.6651048e+02   2.6807494e+02   2.6862691e+02   2.7275534e+02   2.7650072e+02   2.7076832e+02   2.5820049e+02   2.4016298e+02   2.1818197e+02   2.0520859e+02   2.1291104e+02   2.1080825e+02   1.9743226e+02   1.8591576e+02   1.7507623e+02   1.6834094e+02   1.6373184e+02   1.6036381e+02   1.6000000e+02   1.6138649e+02   1.6986162e+02   1.8283030e+02   1.9335760e+02   2.0529511e+02   2.0969045e+02   2.0916491e+02   2.2150988e+02   2.3892088e+02   2.4190965e+02   2.3180469e+02   2.2912220e+02   2.4474129e+02   2.5013747e+02   2.5303674e+02   2.5546754e+02   2.5997778e+02   2.6351618e+02   2.7067453e+02   2.8858621e+02   3.0829766e+02   3.2689211e+02   3.5271248e+02   3.7784044e+02   3.9657053e+02   3.9882339e+02   3.9107573e+02   3.7997485e+02   3.6752251e+02   3.5555000e+02   3.3796863e+02   3.2257973e+02   3.1178713e+02   3.0430346e+02   3.0368623e+02   3.2243443e+02   3.4001842e+02   3.4741238e+02   3.3961170e+02   3.3650835e+02   3.2710575e+02   3.0889532e+02   2.9311754e+02   2.7814171e+02   2.5886873e+02   2.4041624e+02   2.2408051e+02   2.0732362e+02   1.9107713e+02   1.9530994e+02   2.0770575e+02   2.2185592e+02   2.3554347e+02   2.5531384e+02   2.7956582e+02   2.9388489e+02   3.0674425e+02   3.1789971e+02   3.3231218e+02   3.4464059e+02   3.4735982e+02   3.3411774e+02   3.1840019e+02   3.2935857e+02   3.5052097e+02   3.4990913e+02   3.3247442e+02   3.1899279e+02   3.3082563e+02   3.5270088e+02   3.6387436e+02   3.6785546e+02   3.7283240e+02   3.6023553e+02   3.5931576e+02   3.8219561e+02   4.0011618e+02   4.1848811e+02   4.2945526e+02   4.3094971e+02   4.2194918e+02   4.2765205e+02   4.3916004e+02   4.4508022e+02   4.6317515e+02   4.8359094e+02   5.0288889e+02   5.2146478e+02   5.2308341e+02   5.0636462e+02   4.8167757e+02   4.6645673e+02   4.5474031e+02   4.4320083e+02   4.5246326e+02   4.5914482e+02   4.5933596e+02   4.6634170e+02   4.7057368e+02   4.6717949e+02   4.5812251e+02   4.4720331e+02   4.3573705e+02   4.3995243e+02   4.5472388e+02   4.7495789e+02   4.9316993e+02
1.7559722e+02   1.6171653e+02   1.5359907e+02   1.4773491e+02   1.4274583e+02   1.3772546e+02   1.3186486e+02   1.2670889e+02   1.2987574e+02   1.3579120e+02   1.5302326e+02   1.7227778e+02   1.9028456e+02   2.0867000e+02   2.3125113e+02   2.4690926e+02   2.5145278e+02   2.6008472e+02   2.6723363e+02   2.8091583e+02   2.9791262e+02   3.1092162e+02   3.2680000e+02   3.4180926e+02   3.6143845e+02   3.8282778e+02   3.9981435e+02   4.2268981e+02   4.4269438e+02   4.4741019e+02   4.2964919e+02   4.1325417e+02   3.9696095e+02   3.7652037e+02   3.8666667e+02   3.8494213e+02   3.6967778e+02   3.8646806e+02   3.7649104e+02   3.6428194e+02   3.7728750e+02   3.7230370e+02   3.6054993e+02   3.5796083e+02   3.4748051e+02   3.3071944e+02   3.1098333e+02   2.9405528e+02   2.7657447e+02   2.5457500e+02   2.4265498e+02   2.3805315e+02   2.3026375e+02   2.1185042e+02   1.9430299e+02   1.9522361e+02   2.1001481e+02   2.2516157e+02   2.4017083e+02   2.5740083e+02   2.7491493e+02   2.8214292e+02   2.8490363e+02   2.8804324e+02   2.8991944e+02   2.7693935e+02   2.6206759e+02   2.4452500e+02   2.2118426e+02   2.1270569e+02   2.2484896e+02   2.2733704e+02   2.1603502e+02   2.0521153e+02   1.9405113e+02   1.8227269e+02   1.8349563e+02   1.7516162e+02   1.6489366e+02   1.5911611e+02   1.6302049e+02   1.7291218e+02   1.8405694e+02   1.9603889e+02   1.9563752e+02   2.0010833e+02   2.1726294e+02   2.3157343e+02   2.2602229e+02   2.1545292e+02   2.2129213e+02   2.3015611e+02   2.3504676e+02   2.3902551e+02   2.4477917e+02   2.5108009e+02   2.5648775e+02   2.6719347e+02   2.8291220e+02   3.0343056e+02   3.2252535e+02   3.4684537e+02   3.6965588e+02   3.8617750e+02   3.9387044e+02   3.9500000e+02   3.9433694e+02   3.8432861e+02   3.7003419e+02   3.5438736e+02   3.3972697e+02   3.2844083e+02   3.2537854e+02   3.2549907e+02   3.4105442e+02   3.5578889e+02   3.6262016e+02   3.5430236e+02   3.3989243e+02   3.1983667e+02   2.9929861e+02   2.8348875e+02   2.6661674e+02   2.4846972e+02   2.3211667e+02   2.1934907e+02   2.1068887e+02   1.9775028e+02   1.9503387e+02   2.0054259e+02   2.1441250e+02   2.2602648e+02   2.4446343e+02   2.6510278e+02   2.7685463e+02   2.9012130e+02   3.0373194e+02   3.1510366e+02   3.2751836e+02   3.3165750e+02   3.1561991e+02   3.0412792e+02   3.1818333e+02   3.3327333e+02   3.3385972e+02   3.2030139e+02   3.0979118e+02   3.1923889e+02   3.3699729e+02   3.4348347e+02   3.4538704e+02   3.5154028e+02   3.4606604e+02   3.5272829e+02   3.7600278e+02   3.8857639e+02   3.9805859e+02   4.0945375e+02   4.1240264e+02   4.0679630e+02   4.1175313e+02   4.1820282e+02   4.3452653e+02   4.5911917e+02   4.8232317e+02   5.0433773e+02   5.2621479e+02   5.2995111e+02   5.1266528e+02   4.9104597e+02   4.6821435e+02   4.5844046e+02   4.5177778e+02   4.6263102e+02   4.7279238e+02   4.7490000e+02   4.7947896e+02   4.8431250e+02   4.8011174e+02   4.6894954e+02   4.5764664e+02   4.4541667e+02   4.4732771e+02   4.5895139e+02   4.7740188e+02   4.9667014e+02
1.9473928e+02   1.8235731e+02   1.8134633e+02   1.7200872e+02   1.6403904e+02   1.5732590e+02   1.4971520e+02   1.4141360e+02   1.3484001e+02   1.3195058e+02   1.4687884e+02   1.6448260e+02   1.8554790e+02   2.0923333e+02   2.2659011e+02   2.3366862e+02   2.3774825e+02   2.4775548e+02   2.5075936e+02   2.6261535e+02   2.8086306e+02   2.9443053e+02   3.1188454e+02   3.3236296e+02   3.5440930e+02   3.8170139e+02   4.0258606e+02   4.2437315e+02   4.4757580e+02   4.5086940e+02   4.3587933e+02   4.2185088e+02   4.0713767e+02   3.9091079e+02   3.9886276e+02   4.0007212e+02   3.8699150e+02   3.9918823e+02   3.9424275e+02   3.8669722e+02   4.0279386e+02   3.9400102e+02   3.8340144e+02   3.6408173e+02   3.4377271e+02   3.2249111e+02   3.0282383e+02   2.8950297e+02   2.7823018e+02   2.6397237e+02   2.6394036e+02   2.5433894e+02   2.3592752e+02   2.1565161e+02   1.9800062e+02   2.0518056e+02   2.1963606e+02   2.3346223e+02   2.4858816e+02   2.6659927e+02   2.8249001e+02   2.9416879e+02   3.0034502e+02   3.0318421e+02   3.0141488e+02   2.8611038e+02   2.6776429e+02   2.4697281e+02   2.2630740e+02   2.2012166e+02   2.3272149e+02   2.4115712e+02   2.3170914e+02   2.1849459e+02   2.0519113e+02   1.9759698e+02   2.0901776e+02   1.9670841e+02   1.7750889e+02   1.6453099e+02   1.6170291e+02   1.6474449e+02   1.7211648e+02   1.8150136e+02   1.8414542e+02   1.9406250e+02   2.1020587e+02   2.1440268e+02   2.0445256e+02   2.0081635e+02   2.0650749e+02   2.1528319e+02   2.2116044e+02   2.2688270e+02   2.3388640e+02   2.4044688e+02   2.4811357e+02   2.6248531e+02   2.7979192e+02   2.9893806e+02   3.1608406e+02   3.3479405e+02   3.5551048e+02   3.6902368e+02   3.7998320e+02   3.8742690e+02   3.9506086e+02   3.9730010e+02   3.8779197e+02   3.7457215e+02   3.5830361e+02   3.4634669e+02   3.4528904e+02   3.4995928e+02   3.6095385e+02   3.7214693e+02   3.7439976e+02   3.5971133e+02   3.4054126e+02   3.1729737e+02   2.9397569e+02   2.7749452e+02   2.6378025e+02   2.4600619e+02   2.4029854e+02   2.3364620e+02   2.2203565e+02   2.1091038e+02   2.0140640e+02   1.9753358e+02   2.0374178e+02   2.1523109e+02   2.3044985e+02   2.4712975e+02   2.5936516e+02   2.7059186e+02   2.8464108e+02   2.9905733e+02   3.1290849e+02   3.1456491e+02   3.0066453e+02   2.9462690e+02   3.0766371e+02   3.1460960e+02   3.1578367e+02   3.0679825e+02   2.9930647e+02   3.0726628e+02   3.1661886e+02   3.1891676e+02   3.2309381e+02   3.3271594e+02   3.3469189e+02   3.4319213e+02   3.5739985e+02   3.7081652e+02   3.7852393e+02   3.8623158e+02   3.8952554e+02   3.9160302e+02   4.0493330e+02   4.2614050e+02   4.4376400e+02   4.6357061e+02   4.8530030e+02   5.0740655e+02   5.2699123e+02   5.3455156e+02   5.1996594e+02   5.0305022e+02   4.7539230e+02   4.6645151e+02   4.5500000e+02   4.6937142e+02   4.8105715e+02   4.8587500e+02   4.9653722e+02   4.9900821e+02   4.8701466e+02   4.7997831e+02   4.7114602e+02   4.5943706e+02   4.5935707e+02   4.6461462e+02   4.7839211e+02   4.9924744e+02
2.1134985e+02   2.0483985e+02   2.0508482e+02   1.9650318e+02   1.8653762e+02   1.7905168e+02   1.6829615e+02   1.5728874e+02   1.4436291e+02   1.3500000e+02   1.4522222e+02   1.6939622e+02   1.8895849e+02   2.0619961e+02   2.1296313e+02   2.1792980e+02   2.2197054e+02   2.2976330e+02   2.4120145e+02   2.5545548e+02   2.7380454e+02   2.9493692e+02   3.1223194e+02   3.3392588e+02   3.5992802e+02   3.8590365e+02   4.1177948e+02   4.3716534e+02   4.6008129e+02   4.6012578e+02   4.4538877e+02   4.3136333e+02   4.1805357e+02   4.0494747e+02   4.1141565e+02   4.1734423e+02   4.0892920e+02   4.1489859e+02   4.1708166e+02   4.1057400e+02   4.2027643e+02   4.0548889e+02   3.8284449e+02   3.6064817e+02   3.4043102e+02   3.2468316e+02   3.1755351e+02   3.0893691e+02   3.0000161e+02   2.8877974e+02   2.7860524e+02   2.6083699e+02   2.4064331e+02   2.1916353e+02   2.0340012e+02   2.1220694e+02   2.2899348e+02   2.4200224e+02   2.5780370e+02   2.7489993e+02   2.9179067e+02   3.0428509e+02   3.1216657e+02   3.1591842e+02   3.0872709e+02   2.9095183e+02   2.7071331e+02   2.4720000e+02   2.3294399e+02   2.2809619e+02   2.4138003e+02   2.5489038e+02   2.4457542e+02   2.3276080e+02   2.1789918e+02   2.1914488e+02   2.3007589e+02   2.1623309e+02   1.9387306e+02   1.7625668e+02   1.6741834e+02   1.6500000e+02   1.6508713e+02   1.6872196e+02   1.7468160e+02   1.8258662e+02   1.9001991e+02   1.9015260e+02   1.8947763e+02   1.9298526e+02   1.9702100e+02   2.0429645e+02   2.1190005e+02   2.1817415e+02   2.2536118e+02   2.3309635e+02   2.4205133e+02   2.5840373e+02   2.7563366e+02   2.9009662e+02   3.0412975e+02   3.1833346e+02   3.3649662e+02   3.5336829e+02   3.6515938e+02   3.7747738e+02   3.8784822e+02   3.9993178e+02   4.0344332e+02   3.9253319e+02   3.7946820e+02   3.6940721e+02   3.6632390e+02   3.7076279e+02   3.8003874e+02   3.8486455e+02   3.7610370e+02   3.6180928e+02   3.4513516e+02   3.2589516e+02   3.0522022e+02   2.9200366e+02   2.7811893e+02   2.6604415e+02   2.5708867e+02   2.5326061e+02   2.4571930e+02   2.3034423e+02   2.1691825e+02   2.0663319e+02   2.0097961e+02   2.0638299e+02   2.1768909e+02   2.3310144e+02   2.4339459e+02   2.5338935e+02   2.6773911e+02   2.8267726e+02   2.9695760e+02   2.9829105e+02   2.8801273e+02   2.8496582e+02   2.9163399e+02   2.9570763e+02   2.9708302e+02   2.9046477e+02   2.8762237e+02   2.9297996e+02   2.9814327e+02   3.0484523e+02   3.0744623e+02   3.1175943e+02   3.2235771e+02   3.3039637e+02   3.4012414e+02   3.5205058e+02   3.6024642e+02   3.6717086e+02   3.7376690e+02   3.8302600e+02   3.9779642e+02   4.1711330e+02   4.3524639e+02   4.5721595e+02   4.8081615e+02   4.9997047e+02   5.1779681e+02   5.3400558e+02   5.2917997e+02   5.1249058e+02   4.9524425e+02   4.7502877e+02   4.6613606e+02   4.7353723e+02   4.8607997e+02   5.0547632e+02   5.1557200e+02   5.1675909e+02   5.0117109e+02   4.8966981e+02   4.8607946e+02   4.7649240e+02   4.7745353e+02   4.7883684e+02   4.8385770e+02   5.0070370e+02
2.2980331e+02   2.2779474e+02   2.2359058e+02   2.1495173e+02   2.0892895e+02   1.9856004e+02   1.8357115e+02   1.7251930e+02   1.5332096e+02   1.3727869e+02   1.4425000e+02   1.7220257e+02   1.8659983e+02   1.9425088e+02   1.9861034e+02   2.0575984e+02   2.1552076e+02   2.3173392e+02   2.4895078e+02   2.6807520e+02   2.8597671e+02   3.0594938e+02   3.2291079e+02   3.4210238e+02   3.6658834e+02   3.9377076e+02   4.1863178e+02   4.4635084e+02   4.6637751e+02   4.6989462e+02   4.6128489e+02   4.4572316e+02   4.3263635e+02   4.2114211e+02   4.2519561e+02   4.3340643e+02   4.3005751e+02   4.3310076e+02   4.3632215e+02   4.3374951e+02   4.1917368e+02   4.0009129e+02   3.7789442e+02   3.6197871e+02   3.5068567e+02   3.4460955e+02   3.3960585e+02   3.3442327e+02   3.2381452e+02   3.0583632e+02   2.8462997e+02   2.6486725e+02   2.4589652e+02   2.2384503e+02   2.0805202e+02   2.1810409e+02   2.3505429e+02   2.5024544e+02   2.6739912e+02   2.8324522e+02   2.9992817e+02   3.1297836e+02   3.2300461e+02   3.2721708e+02   3.1253880e+02   2.9338538e+02   2.7429592e+02   2.5226070e+02   2.4138226e+02   2.3993047e+02   2.4788026e+02   2.6405298e+02   2.6489805e+02   2.5256433e+02   2.3738675e+02   2.4216413e+02   2.4809026e+02   2.3290468e+02   2.1158616e+02   1.9287485e+02   1.7999732e+02   1.7049337e+02   1.6843690e+02   1.6748908e+02   1.7000000e+02   1.7084035e+02   1.7417388e+02   1.8022596e+02   1.8603424e+02   1.9581000e+02   2.0487320e+02   2.0963181e+02   2.1344275e+02   2.1714914e+02   2.2266307e+02   2.2940058e+02   2.3897234e+02   2.5472474e+02   2.6688847e+02   2.7679142e+02   2.8863567e+02   3.0080735e+02   3.1675280e+02   3.3473158e+02   3.5053508e+02   3.6483587e+02   3.7787681e+02   3.9122125e+02   4.0621855e+02   4.1007468e+02   3.9904250e+02   3.9340016e+02   3.9133772e+02   3.9481444e+02   3.9532440e+02   3.8649474e+02   3.7239016e+02   3.5738090e+02   3.4156225e+02   3.2823669e+02   3.1705478e+02   3.0726789e+02   2.9467352e+02   2.8494152e+02   2.7697272e+02   2.6756481e+02   2.5650030e+02   2.4161462e+02   2.2664555e+02   2.1337823e+02   2.0500000e+02   2.0500000e+02   2.0981026e+02   2.2160351e+02   2.3311959e+02   2.4124600e+02   2.4934921e+02   2.6417271e+02   2.7665234e+02   2.8102105e+02   2.7564717e+02   2.7063673e+02   2.7613012e+02   2.8041314e+02   2.8076249e+02   2.7925380e+02   2.7634320e+02   2.7751162e+02   2.8388096e+02   2.9279571e+02   2.9745775e+02   3.0621146e+02   3.2651566e+02   3.3495813e+02   3.3965108e+02   3.5268655e+02   3.6319971e+02   3.7116632e+02   3.7902661e+02   3.8613988e+02   3.9079503e+02   4.0407881e+02   4.2477098e+02   4.4614807e+02   4.6562358e+02   4.8486589e+02   5.0872719e+02   5.2958480e+02   5.3924797e+02   5.2431526e+02   5.1079069e+02   4.9809517e+02   4.7732611e+02   4.7593179e+02   4.9241833e+02   5.1600000e+02   5.2899669e+02   5.3192538e+02   5.2307287e+02   5.1716105e+02   5.0091862e+02   4.9363450e+02   4.9194243e+02   4.9265263e+02   4.9423842e+02   5.0345556e+02
2.3504809e+02   2.4758026e+02   2.4213035e+02   2.3355947e+02   2.2529356e+02   2.0709336e+02   1.9492244e+02   1.8326247e+02   1.6259754e+02   1.4311063e+02   1.4422222e+02   1.6375558e+02   1.7411089e+02   1.8229643e+02   1.9212655e+02   2.0541564e+02   2.2241107e+02   2.4005889e+02   2.6237512e+02   2.8160906e+02   2.9771092e+02   3.1932059e+02   3.4062039e+02   3.5826372e+02   3.7743484e+02   4.0079814e+02   4.2029909e+02   4.3627738e+02   4.4804283e+02   4.5807488e+02   4.6500000e+02   4.6195009e+02   4.5028974e+02   4.4271525e+02   4.4306845e+02   4.5051854e+02   4.5444632e+02   4.5257312e+02   4.4403521e+02   4.3619105e+02   4.2508575e+02   4.0850683e+02   3.9316373e+02   3.8233300e+02   3.7529159e+02   3.6672667e+02   3.5952844e+02   3.5105912e+02   3.3620124e+02   3.1273046e+02   2.8852153e+02   2.6957120e+02   2.5181525e+02   2.3110237e+02   2.1195377e+02   2.2256791e+02   2.4135495e+02   2.5741051e+02   2.7477675e+02   2.8918930e+02   3.0427039e+02   3.1968231e+02   3.3275906e+02   3.3468972e+02   3.1829898e+02   2.9689628e+02   2.8126421e+02   2.6958987e+02   2.5667059e+02   2.5355376e+02   2.5540170e+02   2.7009462e+02   2.8392605e+02   2.7336856e+02   2.5678978e+02   2.5887047e+02   2.6583026e+02   2.4882998e+02   2.2615721e+02   2.0376398e+02   1.8724886e+02   1.8567529e+02   1.8551644e+02   1.7759084e+02   1.7159344e+02   1.6966393e+02   1.7063977e+02   1.8128809e+02   1.9575401e+02   2.0960965e+02   2.1919649e+02   2.2642874e+02   2.3381323e+02   2.3602385e+02   2.3726992e+02   2.4149798e+02   2.5110520e+02   2.5776462e+02   2.6428543e+02   2.7125299e+02   2.8304859e+02   2.9206847e+02   3.0283890e+02   3.1838105e+02   3.3455787e+02   3.5351012e+02   3.6764094e+02   3.8277396e+02   3.9925616e+02   4.1311705e+02   4.1700520e+02   4.1437039e+02   4.1270955e+02   4.1155863e+02   3.9535286e+02   3.7809876e+02   3.6135908e+02   3.4588682e+02   3.3047427e+02   3.1669464e+02   3.0564684e+02   3.0009230e+02   2.9247900e+02   2.8230534e+02   2.7315723e+02   2.6105348e+02   2.4854495e+02   2.3369564e+02   2.2037165e+02   2.1210041e+02   2.0759671e+02   2.0859671e+02   2.1015139e+02   2.1576191e+02   2.2198209e+02   2.3028638e+02   2.3839649e+02   2.4661415e+02   2.5561747e+02   2.6268640e+02   2.6168928e+02   2.5595595e+02   2.5570841e+02   2.5683947e+02   2.5678610e+02   2.5865567e+02   2.6386641e+02   2.7506332e+02   2.8187435e+02   2.8979261e+02   3.0247426e+02   3.2308480e+02   3.4482410e+02   3.5277368e+02   3.5127800e+02   3.6376133e+02   3.8074090e+02   3.9364283e+02   4.0518782e+02   4.0885682e+02   4.0447922e+02   4.0402975e+02   4.1747760e+02   4.3854906e+02   4.5841395e+02   4.7832510e+02   5.0233991e+02   5.2631440e+02   5.4402308e+02   5.4124249e+02   5.2509059e+02   5.1295170e+02   4.9848141e+02   4.8239347e+02   4.9304521e+02   5.1440329e+02   5.3107922e+02   5.4173157e+02   5.4124137e+02   5.3755804e+02   5.2941432e+02   5.2213931e+02   5.1727128e+02   5.1400580e+02   5.1309181e+02   5.1902836e+02
2.4528812e+02   2.5921491e+02   2.5920322e+02   2.5103261e+02   2.3203566e+02   2.1818655e+02   2.0909948e+02   1.9499643e+02   1.7393538e+02   1.4798630e+02   1.4513889e+02   1.5724316e+02   1.7127793e+02   1.8434724e+02   1.9835857e+02   2.1436676e+02   2.3251315e+02   2.5149579e+02   2.7441791e+02   2.9141798e+02   3.0974716e+02   3.3755147e+02   3.5627875e+02   3.7014531e+02   3.8406350e+02   3.9600870e+02   4.0604631e+02   4.1702519e+02   4.2691038e+02   4.3598139e+02   4.5211419e+02   4.6492342e+02   4.6495375e+02   4.6002255e+02   4.6119546e+02   4.6740156e+02   4.6668940e+02   4.4733215e+02   4.2949990e+02   4.1954371e+02   4.1359123e+02   4.0761779e+02   4.0164171e+02   3.9161228e+02   3.8163699e+02   3.7153884e+02   3.5853143e+02   3.4546350e+02   3.3126277e+02   3.1218197e+02   2.9025677e+02   2.6921669e+02   2.5030614e+02   2.3326802e+02   2.1503026e+02   2.2866667e+02   2.4567436e+02   2.6154381e+02   2.7670000e+02   2.9259618e+02   3.0775249e+02   3.2376730e+02   3.4159460e+02   3.4049142e+02   3.2423048e+02   3.0340380e+02   2.9195684e+02   2.8906623e+02   2.7989298e+02   2.7083099e+02   2.6342069e+02   2.7507597e+02   2.9386428e+02   2.9827874e+02   2.8001447e+02   2.8600283e+02   2.8185599e+02   2.5466360e+02   2.3195434e+02   2.0662556e+02   1.9544063e+02   2.0347465e+02   2.0569337e+02   1.9568776e+02   1.8568713e+02   1.7884320e+02   1.7294233e+02   1.7452591e+02   1.9208450e+02   2.1195892e+02   2.2884404e+02   2.4279272e+02   2.5233443e+02   2.5527227e+02   2.5612105e+02   2.5809079e+02   2.6125322e+02   2.6745545e+02   2.7655011e+02   2.8920507e+02   3.0299550e+02   3.1288558e+02   3.1801969e+02   3.1643000e+02   3.2405757e+02   3.4336540e+02   3.6097347e+02   3.7800677e+02   3.9498577e+02   4.0902529e+02   4.2261507e+02   4.3028834e+02   4.2915704e+02   4.1147037e+02   3.9020677e+02   3.6838392e+02   3.4878206e+02   3.3371905e+02   3.1999810e+02   3.0802096e+02   2.9504381e+02   2.8420215e+02   2.7513601e+02   2.6510014e+02   2.5507872e+02   2.4607322e+02   2.3622638e+02   2.2833459e+02   2.2057584e+02   2.1383491e+02   2.1871184e+02   2.2226475e+02   2.1871166e+02   2.1508306e+02   2.1524962e+02   2.2050283e+02   2.2668464e+02   2.3440487e+02   2.4140858e+02   2.4611535e+02   2.4664882e+02   2.4493947e+02   2.4393947e+02   2.4293947e+02   2.4556855e+02   2.5848808e+02   2.7451920e+02   2.8468402e+02   2.9062719e+02   3.0124016e+02   3.1615189e+02   3.3814327e+02   3.5958356e+02   3.6814246e+02   3.6123772e+02   3.6736140e+02   3.9440323e+02   4.1590895e+02   4.2772476e+02   4.3015132e+02   4.2232544e+02   4.1450995e+02   4.2141862e+02   4.4215281e+02   4.6367455e+02   4.7875110e+02   4.9973559e+02   5.2431078e+02   5.4497188e+02   5.5350687e+02   5.4158166e+02   5.2557235e+02   5.1150251e+02   4.9544264e+02   4.9403938e+02   5.1198991e+02   5.2897070e+02   5.4472565e+02   5.5678908e+02   5.5527077e+02   5.4864771e+02   5.4433289e+02   5.4295634e+02   5.3885316e+02   5.3636961e+02   5.2314427e+02
2.6221138e+02   2.7374386e+02   2.7472597e+02   2.5930256e+02   2.4225241e+02   2.3179971e+02   2.1975341e+02   2.0425811e+02   1.8274620e+02   1.5566363e+02   1.4561559e+02   1.6706267e+02   1.8447649e+02   1.9882599e+02   2.1292164e+02   2.2941642e+02   2.4848004e+02   2.6502734e+02   2.8315033e+02   3.0317368e+02   3.1969865e+02   3.3838896e+02   3.5173536e+02   3.6027624e+02   3.6632840e+02   3.7243037e+02   3.8161810e+02   3.9655400e+02   4.0740044e+02   4.1586981e+02   4.2877793e+02   4.5058136e+02   4.6544563e+02   4.7138635e+02   4.7699956e+02   4.8056262e+02   4.6200115e+02   4.3791396e+02   4.1663729e+02   4.0178102e+02   3.9154797e+02   3.8465529e+02   3.7911540e+02   3.7411170e+02   3.6852315e+02   3.5944609e+02   3.4904872e+02   3.3019944e+02   3.1619018e+02   3.0018816e+02   2.8423666e+02   2.6292366e+02   2.4258377e+02   2.2632060e+02   2.2229739e+02   2.2891630e+02   2.4217337e+02   2.5823588e+02   2.7424600e+02   2.9119232e+02   3.0825841e+02   3.2531937e+02   3.4608419e+02   3.4921652e+02   3.3414401e+02   3.1917976e+02   3.1197049e+02   3.0938202e+02   2.9776867e+02   2.8763611e+02   2.7544280e+02   2.8277517e+02   3.0317055e+02   3.1622580e+02   3.0407727e+02   3.0396845e+02   2.8358043e+02   2.5563333e+02   2.3285278e+02   2.0904415e+02   2.0986431e+02   2.2187072e+02   2.2521318e+02   2.1322164e+02   2.0375227e+02   1.9489638e+02   1.8527155e+02   1.7576959e+02   1.8219804e+02   2.0265300e+02   2.1938462e+02   2.3086871e+02   2.4339944e+02   2.5541865e+02   2.6235340e+02   2.6473489e+02   2.6828817e+02   2.7971210e+02   2.9327278e+02   3.0771496e+02   3.2229130e+02   3.3437178e+02   3.3778289e+02   3.3558289e+02   3.3294889e+02   3.4242471e+02   3.5912312e+02   3.7603704e+02   3.9158248e+02   4.0659174e+02   4.2148681e+02   4.3264444e+02   4.3013333e+02   4.1147037e+02   3.8813483e+02   3.6544444e+02   3.4668712e+02   3.3029424e+02   3.1894415e+02   3.0811562e+02   2.9839315e+02   2.8627752e+02   2.7291452e+02   2.5933336e+02   2.4744985e+02   2.4137378e+02   2.3761267e+02   2.3343874e+02   2.2340626e+02   2.2088774e+02   2.3824671e+02   2.4114415e+02   2.3413946e+02   2.2767094e+02   2.2094228e+02   2.2000000e+02   2.2028001e+02   2.2394014e+02   2.2847917e+02   2.3307127e+02   2.3628871e+02   2.3714474e+02   2.3820689e+02   2.4185714e+02   2.5423489e+02   2.6765150e+02   2.8391929e+02   2.9513674e+02   2.9754337e+02   3.0511502e+02   3.2560621e+02   3.4808385e+02   3.7096282e+02   3.8085526e+02   3.7367749e+02   3.6799683e+02   3.9221371e+02   4.1838388e+02   4.3464938e+02   4.4222746e+02   4.3939940e+02   4.3118817e+02   4.3401993e+02   4.4804145e+02   4.7013533e+02   4.9274117e+02   5.1321908e+02   5.3223019e+02   5.5173345e+02   5.6253304e+02   5.5323489e+02   5.3643589e+02   5.1896096e+02   5.0143237e+02   4.9987370e+02   5.1133333e+02   5.2554730e+02   5.4443163e+02   5.6138781e+02   5.7379320e+02   5.6956153e+02   5.6490227e+02   5.6127598e+02   5.5367590e+02   5.3697237e+02   5.1660508e+02
2.7661725e+02   2.8751020e+02   2.8271563e+02   2.6561803e+02   2.5062544e+02   2.3772066e+02   2.2477515e+02   2.0676404e+02   1.8670478e+02   1.6256140e+02   1.4995855e+02   1.7107819e+02   1.8908626e+02   2.0606404e+02   2.2210848e+02   2.4194756e+02   2.5978791e+02   2.7760046e+02   2.9027300e+02   2.9958830e+02   3.1069834e+02   3.2080838e+02   3.3296842e+02   3.4566764e+02   3.4662130e+02   3.5088509e+02   3.6084542e+02   3.7307398e+02   3.8901770e+02   4.0076501e+02   4.1379276e+02   4.3487719e+02   4.5484901e+02   4.7651041e+02   4.9176433e+02   4.8323830e+02   4.5839259e+02   4.3743070e+02   4.1726033e+02   3.9361374e+02   3.7506864e+02   3.6426635e+02   3.5646624e+02   3.5073216e+02   3.4772100e+02   3.4354220e+02   3.3830338e+02   3.2155096e+02   3.0293434e+02   2.8611842e+02   2.6731257e+02   2.4708556e+02   2.3405637e+02   2.3518850e+02   2.3919679e+02   2.3829591e+02   2.4156355e+02   2.5836881e+02   2.7358539e+02   2.9059632e+02   3.0852931e+02   3.2765029e+02   3.4842784e+02   3.5843770e+02   3.5065472e+02   3.3971442e+02   3.3381335e+02   3.2474825e+02   3.1365208e+02   3.0373343e+02   2.9074028e+02   2.9053655e+02   3.0865029e+02   3.2639950e+02   3.2363938e+02   3.0203528e+02   2.7809250e+02   2.5488782e+02   2.3101093e+02   2.1672906e+02   2.2510032e+02   2.3726679e+02   2.4290088e+02   2.3485302e+02   2.2743397e+02   2.1634561e+02   1.9749303e+02   1.8209585e+02   1.8027716e+02   1.9432115e+02   2.0875110e+02   2.1989813e+02   2.3310341e+02   2.4801004e+02   2.6063382e+02   2.6735136e+02   2.7835682e+02   2.9153392e+02   3.0635244e+02   3.2055244e+02   3.3645906e+02   3.5066520e+02   3.5607632e+02   3.5277895e+02   3.4779596e+02   3.4922149e+02   3.6182251e+02   3.7674828e+02   3.9104630e+02   4.0605556e+02   4.2106481e+02   4.3264444e+02   4.3013333e+02   4.1214922e+02   3.9012690e+02   3.7045556e+02   3.5567018e+02   3.4045984e+02   3.2398626e+02   3.1513021e+02   3.0758467e+02   2.9563219e+02   2.8143769e+02   2.6593234e+02   2.6091554e+02   2.5293596e+02   2.4512919e+02   2.3830585e+02   2.2880955e+02   2.3155584e+02   2.4612829e+02   2.5866115e+02   2.5187680e+02   2.4487310e+02   2.3786940e+02   2.3086569e+02   2.2501822e+02   2.2492436e+02   2.2500000e+02   2.2860860e+02   2.3002756e+02   2.3483050e+02   2.4952725e+02   2.5548620e+02   2.6451988e+02   2.7555102e+02   2.9716462e+02   3.0994717e+02   3.1174399e+02   3.0864801e+02   3.2178860e+02   3.5131111e+02   3.7445370e+02   3.8887502e+02   3.8952962e+02   3.7764425e+02   3.8382631e+02   4.0771579e+02   4.2959514e+02   4.4972871e+02   4.5784203e+02   4.5235887e+02   4.4786095e+02   4.6480842e+02   4.7691063e+02   4.9634557e+02   5.1929557e+02   5.4181910e+02   5.6051170e+02   5.7126725e+02   5.6096910e+02   5.4341062e+02   5.2282807e+02   5.0955564e+02   5.1071569e+02   5.1399123e+02   5.2277856e+02   5.4115944e+02   5.6044007e+02   5.7866873e+02   5.8810909e+02   5.8400442e+02   5.7399616e+02   5.5770585e+02   5.3634474e+02   5.1422914e+02
2.7336391e+02   2.7802946e+02   2.8132081e+02   2.7157786e+02   2.5423092e+02   2.3790741e+02   2.2254686e+02   2.0520482e+02   1.8650853e+02   1.6612351e+02   1.5478235e+02   1.7114815e+02   1.8651663e+02   2.0150103e+02   2.1521369e+02   2.3231104e+02   2.5020329e+02   2.6456357e+02   2.7616358e+02   2.8351570e+02   2.9419158e+02   3.0278709e+02   3.1289079e+02   3.2381165e+02   3.3015742e+02   3.3883534e+02   3.4748415e+02   3.6104424e+02   3.8167692e+02   3.9865210e+02   4.1746068e+02   4.3911404e+02   4.5908115e+02   4.8010062e+02   4.9537872e+02   4.8665702e+02   4.6281733e+02   4.4377924e+02   4.2243536e+02   4.0144936e+02   3.8323794e+02   3.6844623e+02   3.4807478e+02   3.3031417e+02   3.2174427e+02   3.2335263e+02   3.2328944e+02   3.1346856e+02   2.9498928e+02   2.7504322e+02   2.5496335e+02   2.4276480e+02   2.4870374e+02   2.5605739e+02   2.5584011e+02   2.5010146e+02   2.4815108e+02   2.6679647e+02   2.8345943e+02   2.9770387e+02   3.1671499e+02   3.3439518e+02   3.5286828e+02   3.6637054e+02   3.6572997e+02   3.5839535e+02   3.5112868e+02   3.4012127e+02   3.2619708e+02   3.1485999e+02   3.0296016e+02   2.9707396e+02   3.1665275e+02   3.3442757e+02   3.2378122e+02   2.9738477e+02   2.7231908e+02   2.4752755e+02   2.3311077e+02   2.3228940e+02   2.4127700e+02   2.5577459e+02   2.6437239e+02   2.5656016e+02   2.4652013e+02   2.3255274e+02   2.1413794e+02   1.8991416e+02   1.8139545e+02   1.9715368e+02   2.1375468e+02   2.2766244e+02   2.4546091e+02   2.5841710e+02   2.6363692e+02   2.6830909e+02   2.8082722e+02   3.0166879e+02   3.1681885e+02   3.3354297e+02   3.5062683e+02   3.6577071e+02   3.7265461e+02   3.6925461e+02   3.6345275e+02   3.6312182e+02   3.6787233e+02   3.7916055e+02   3.9304630e+02   4.0731662e+02   4.2052093e+02   4.3138461e+02   4.3239255e+02   4.1709212e+02   3.9967054e+02   3.8099035e+02   3.6520331e+02   3.4908182e+02   3.3630219e+02   3.2555881e+02   3.1473592e+02   3.0116425e+02   2.8440809e+02   2.7482693e+02   2.7464737e+02   2.7293392e+02   2.6108820e+02   2.5116406e+02   2.3758792e+02   2.3533027e+02   2.4441908e+02   2.5802205e+02   2.7365277e+02   2.6478890e+02   2.5637829e+02   2.4704306e+02   2.4112515e+02   2.3613327e+02   2.3430197e+02   2.3497298e+02   2.3779108e+02   2.5133014e+02   2.6506718e+02   2.6864212e+02   2.7327909e+02   2.9426089e+02   3.1333238e+02   3.2592312e+02   3.3312687e+02   3.2565397e+02   3.1990705e+02   3.4460724e+02   3.6761529e+02   3.8652870e+02   4.0388120e+02   4.0272385e+02   3.9475292e+02   3.9813309e+02   4.2032216e+02   4.4653737e+02   4.6709353e+02   4.7247244e+02   4.6690485e+02   4.7902073e+02   5.0167910e+02   5.1278634e+02   5.2922368e+02   5.4911699e+02   5.6758406e+02   5.7988613e+02   5.7004832e+02   5.4938036e+02   5.2791763e+02   5.2031516e+02   5.2264793e+02   5.2287522e+02   5.2677108e+02   5.4145988e+02   5.6070314e+02   5.7981646e+02   5.9537481e+02   5.9737824e+02   5.7892222e+02   5.5878591e+02   5.3934214e+02   5.2020612e+02
2.5543168e+02   2.6423057e+02   2.7826451e+02   2.7748101e+02   2.5940836e+02   2.4118667e+02   2.2338635e+02   2.0286667e+02   1.8819145e+02   1.7289013e+02   1.5932774e+02   1.7014815e+02   1.8233739e+02   1.9533553e+02   2.0634527e+02   2.1933450e+02   2.3281340e+02   2.4402562e+02   2.5552563e+02   2.6428705e+02   2.7506940e+02   2.8559441e+02   2.9710388e+02   3.1070589e+02   3.2733411e+02   3.5446542e+02   3.6509686e+02   3.7337938e+02   3.8621782e+02   4.0437778e+02   4.2250325e+02   4.4688649e+02   4.7341663e+02   4.8933938e+02   4.9961818e+02   4.9230258e+02   4.7083787e+02   4.5180844e+02   4.3179689e+02   4.1333348e+02   3.9827314e+02   3.8424614e+02   3.6144864e+02   3.3967702e+02   3.1472235e+02   3.0034237e+02   2.9911974e+02   2.9512427e+02   2.8235322e+02   2.6334211e+02   2.5015573e+02   2.5853060e+02   2.6856243e+02   2.7358684e+02   2.7228480e+02   2.6340409e+02   2.5657256e+02   2.7324488e+02   2.9011228e+02   3.0691393e+02   3.2422282e+02   3.4126228e+02   3.5824417e+02   3.7556160e+02   3.8218375e+02   3.7372690e+02   3.6462083e+02   3.5471579e+02   3.4420434e+02   3.3012259e+02   3.1211838e+02   3.0888579e+02   3.2750957e+02   3.3630810e+02   3.2303070e+02   2.9757929e+02   2.7352914e+02   2.5554079e+02   2.5164474e+02   2.5280029e+02   2.5943177e+02   2.7334085e+02   2.6683085e+02   2.4550207e+02   2.3258647e+02   2.2236491e+02   2.0830446e+02   1.9147379e+02   1.8639729e+02   2.0180892e+02   2.1958450e+02   2.3441784e+02   2.4907778e+02   2.6018148e+02   2.6418333e+02   2.6756228e+02   2.8212222e+02   3.0060224e+02   3.2237997e+02   3.4225985e+02   3.6164982e+02   3.7726790e+02   3.8525604e+02   3.8281079e+02   3.7885604e+02   3.7805789e+02   3.8007634e+02   3.8420444e+02   3.9288632e+02   4.0607997e+02   4.1808738e+02   4.2869504e+02   4.3424794e+02   4.2067188e+02   4.0642710e+02   3.9018231e+02   3.7693752e+02   3.6315419e+02   3.5050160e+02   3.3473420e+02   3.1860707e+02   3.0112601e+02   2.8741816e+02   2.8971373e+02   2.9288026e+02   2.8981313e+02   2.7956640e+02   2.6889357e+02   2.5088431e+02   2.3893926e+02   2.4292664e+02   2.5584427e+02   2.8294984e+02   2.8491823e+02   2.7391126e+02   2.6106832e+02   2.6134771e+02   2.5997266e+02   2.5970711e+02   2.5667254e+02   2.4672142e+02   2.6432903e+02   2.8361705e+02   2.9154164e+02   2.8509981e+02   3.0115680e+02   3.2365602e+02   3.4239901e+02   3.5185138e+02   3.4189964e+02   3.3428371e+02   3.3758053e+02   3.5651950e+02   3.7553105e+02   3.9683704e+02   4.1774030e+02   4.2051189e+02   4.1535092e+02   4.1601707e+02   4.3574697e+02   4.6138655e+02   4.8455483e+02   4.8773280e+02   4.8659544e+02   5.0866924e+02   5.2939644e+02   5.4340570e+02   5.5772551e+02   5.7445117e+02   5.8645306e+02   5.7768527e+02   5.5754089e+02   5.3896300e+02   5.3528753e+02   5.3735132e+02   5.3701798e+02   5.3731969e+02   5.4974308e+02   5.6330321e+02   5.8206941e+02   6.0005930e+02   5.9816886e+02   5.7754672e+02   5.5173724e+02   5.2731316e+02   5.1080655e+02
2.3845222e+02   2.5588866e+02   2.7685383e+02   2.8552000e+02   2.6948071e+02   2.5048297e+02   2.3146782e+02   2.1448737e+02   2.0105358e+02   1.8224563e+02   1.6519253e+02   1.7256210e+02   1.8861019e+02   2.0493204e+02   2.1710265e+02   2.2593038e+02   2.3646396e+02   2.4493853e+02   2.5975458e+02   2.7052832e+02   2.8380652e+02   2.9637122e+02   3.0638816e+02   3.2130124e+02   3.4122173e+02   3.6846813e+02   3.8617372e+02   3.9430668e+02   4.0249371e+02   4.1624198e+02   4.2686620e+02   4.5011421e+02   4.7360914e+02   4.9128148e+02   4.9888044e+02   4.8737727e+02   4.7212712e+02   4.5781901e+02   4.4222157e+02   4.2779062e+02   4.1197939e+02   3.9511062e+02   3.7268317e+02   3.5454833e+02   3.3067823e+02   3.0804150e+02   2.8838606e+02   2.7577914e+02   2.6941828e+02   2.6071092e+02   2.6866738e+02   2.8089532e+02   2.8668977e+02   2.8827878e+02   2.8394800e+02   2.7425855e+02   2.6476974e+02   2.7657407e+02   2.9270000e+02   3.1051308e+02   3.2822964e+02   3.4421506e+02   3.6134839e+02   3.8033457e+02   3.9308283e+02   3.9319530e+02   3.8066223e+02   3.7089509e+02   3.6042262e+02   3.4349778e+02   3.2207677e+02   3.2643020e+02   3.4041791e+02   3.4078967e+02   3.2405663e+02   2.9919033e+02   2.8408618e+02   2.7743236e+02   2.7638618e+02   2.7503260e+02   2.7386587e+02   2.6633251e+02   2.4584518e+02   2.2679900e+02   2.1204260e+02   2.0492577e+02   1.9847857e+02   1.9627721e+02   1.9088782e+02   1.9778799e+02   2.1822861e+02   2.3172098e+02   2.4231516e+02   2.4901272e+02   2.5599223e+02   2.6559223e+02   2.8017025e+02   2.9652939e+02   3.1473852e+02   3.3661892e+02   3.6004207e+02   3.8017951e+02   3.9522788e+02   3.9614658e+02   3.9178445e+02   3.8918816e+02   3.9244195e+02   3.9939557e+02   4.0017692e+02   4.0498758e+02   4.1580968e+02   4.2660191e+02   4.3500000e+02   4.2552198e+02   4.1233784e+02   3.9870519e+02   3.8627568e+02   3.7202366e+02   3.5345291e+02   3.3204201e+02   3.1521506e+02   2.9852969e+02   2.9639278e+02   3.0546421e+02   3.0918816e+02   3.0622519e+02   2.9546038e+02   2.8486912e+02   2.6426555e+02   2.5010372e+02   2.4529457e+02   2.6421088e+02   2.8837544e+02   3.0342149e+02   2.9064371e+02   2.7387756e+02   2.7828431e+02   2.8417529e+02   2.8105458e+02   2.7019807e+02   2.5738618e+02   2.6928865e+02   2.9455354e+02   3.1309715e+02   3.0974656e+02   3.0675969e+02   3.2735346e+02   3.4836642e+02   3.6827296e+02   3.6440500e+02   3.6020059e+02   3.6313477e+02   3.6082305e+02   3.7551359e+02   3.9190975e+02   4.1390429e+02   4.3776577e+02   4.4213572e+02   4.3765282e+02   4.4212161e+02   4.5322970e+02   4.7962952e+02   5.0475557e+02   5.0547113e+02   5.1125495e+02   5.3477889e+02   5.5710480e+02   5.7312925e+02   5.8627161e+02   5.9372830e+02   5.8629778e+02   5.7290109e+02   5.5620482e+02   5.5218816e+02   5.5251964e+02   5.5185482e+02   5.4899013e+02   5.5814025e+02   5.7008055e+02   5.8751803e+02   6.0408124e+02   5.9913136e+02   5.7790340e+02   5.4987784e+02   5.3135549e+02   5.1704845e+02
2.3080166e+02   2.5019006e+02   2.7217827e+02   2.8809279e+02   2.7652544e+02   2.5813353e+02   2.3912057e+02   2.2048421e+02   2.0151754e+02   1.8937349e+02   1.7150146e+02   1.7573138e+02   1.9218889e+02   2.1186491e+02   2.3274669e+02   2.4991423e+02   2.5749883e+02   2.6829708e+02   2.8294415e+02   2.9423041e+02   3.0492836e+02   3.1393392e+02   3.2397105e+02   3.3768031e+02   3.5325867e+02   3.7796491e+02   3.9527544e+02   4.0957700e+02   4.1933567e+02   4.3193606e+02   4.4394347e+02   4.5821404e+02   4.7834912e+02   4.9078869e+02   4.8127749e+02   4.6599220e+02   4.5350439e+02   4.4560760e+02   4.3121014e+02   4.1835828e+02   4.0700439e+02   3.9546998e+02   3.8156481e+02   3.6020000e+02   3.3876667e+02   3.1890351e+02   2.9420965e+02   2.7257934e+02   2.6783626e+02   2.7801579e+02   2.8972320e+02   2.9989162e+02   3.0448421e+02   3.0098265e+02   2.9423879e+02   2.8464327e+02   2.7378177e+02   2.7972242e+02   2.9050965e+02   3.0532943e+02   3.1975146e+02   3.3639298e+02   3.5377135e+02   3.7022924e+02   3.8795263e+02   4.0084308e+02   3.9731199e+02   3.8667368e+02   3.7208363e+02   3.5193548e+02   3.3897661e+02   3.5043782e+02   3.5775195e+02   3.4639649e+02   3.2823908e+02   3.0980702e+02   3.0463947e+02   2.9995673e+02   2.9555926e+02   2.8259064e+02   2.6558723e+02   2.4888655e+02   2.3154912e+02   2.2302066e+02   2.2347943e+02   2.2657895e+02   2.2556715e+02   2.1891540e+02   2.0061988e+02   1.9598031e+02   2.1070370e+02   2.2275088e+02   2.3376579e+02   2.4625224e+02   2.5751228e+02   2.6945029e+02   2.8532212e+02   3.0604211e+02   3.2575624e+02   3.4632982e+02   3.6648538e+02   3.8458012e+02   4.0039191e+02   4.0888421e+02   4.0451326e+02   4.0178947e+02   4.0420058e+02   4.1044172e+02   4.1244922e+02   4.1273743e+02   4.1676754e+02   4.2564444e+02   4.3500000e+02   4.3067700e+02   4.1761092e+02   4.0411111e+02   3.8647495e+02   3.6566452e+02   3.4437018e+02   3.2684561e+02   3.0858869e+02   3.0012281e+02   3.0961559e+02   3.2015010e+02   3.2439678e+02   3.2306725e+02   3.1177115e+02   2.9380000e+02   2.6776852e+02   2.5704386e+02   2.5323684e+02   2.7202612e+02   2.9240750e+02   3.1451404e+02   3.0898762e+02   2.9098441e+02   2.9598977e+02   3.0431579e+02   3.0052135e+02   2.8718246e+02   2.7261452e+02   2.7570897e+02   2.9908158e+02   3.2244912e+02   3.3104347e+02   3.2606433e+02   3.3437943e+02   3.5160195e+02   3.7605702e+02   3.8749591e+02   3.8876023e+02   3.9212982e+02   3.8796988e+02   3.9008265e+02   4.1683450e+02   4.2208382e+02   4.4357807e+02   4.6180000e+02   4.6076365e+02   4.6466004e+02   4.7260088e+02   4.8441111e+02   5.0810565e+02   5.2768070e+02   5.3299152e+02   5.4965984e+02   5.6554298e+02   5.8480585e+02   6.0028509e+02   6.0357251e+02   5.9775877e+02   5.8736569e+02   5.7455848e+02   5.6958129e+02   5.6936725e+02   5.7008772e+02   5.6645429e+02   5.6921150e+02   5.8694152e+02   6.0140351e+02   6.1099513e+02   6.0441404e+02   5.8434308e+02   5.6502846e+02   5.5437105e+02   5.4327680e+02
2.2558112e+02   2.3960036e+02   2.5859561e+02   2.7987964e+02   2.8103243e+02   2.6308428e+02   2.4520211e+02   2.2595402e+02   2.1016423e+02   1.9803815e+02   1.8212345e+02   1.7824685e+02   1.9118684e+02   2.1116820e+02   2.3315122e+02   2.5405492e+02   2.6912931e+02   2.8429853e+02   2.9836854e+02   3.1033162e+02   3.2051084e+02   3.3158338e+02   3.4370266e+02   3.5753307e+02   3.7076672e+02   3.8961301e+02   4.0173523e+02   4.2149169e+02   4.3544382e+02   4.4944315e+02   4.6038984e+02   4.7239259e+02   4.8407529e+02   4.8744293e+02   4.6736657e+02   4.5036910e+02   4.3750675e+02   4.2943594e+02   4.1720175e+02   3.9933207e+02   3.8844254e+02   3.8233915e+02   3.7017969e+02   3.5312304e+02   3.3216351e+02   3.1015043e+02   2.9112033e+02   2.7885365e+02   2.9159897e+02   2.9895132e+02   3.0802200e+02   3.1685197e+02   3.2051418e+02   3.1613370e+02   3.0712814e+02   2.9993911e+02   2.8504454e+02   2.8465465e+02   2.9678633e+02   3.1181517e+02   3.2089206e+02   3.3011624e+02   3.4448203e+02   3.6403201e+02   3.8802471e+02   4.0471391e+02   4.1018439e+02   3.9878057e+02   3.8056595e+02   3.6213887e+02   3.6057052e+02   3.7185850e+02   3.7268711e+02   3.5437968e+02   3.3686423e+02   3.2729812e+02   3.2301589e+02   3.1308889e+02   2.9479381e+02   2.7570558e+02   2.5353812e+02   2.3767323e+02   2.3857289e+02   2.4600994e+02   2.5277482e+02   2.5306129e+02   2.4285863e+02   2.2579348e+02   2.0481688e+02   1.9880388e+02   2.1619728e+02   2.3097164e+02   2.3985285e+02   2.5077924e+02   2.6161513e+02   2.7281793e+02   2.9245170e+02   3.1438735e+02   3.3672132e+02   3.5847841e+02   3.7868582e+02   3.9896779e+02   4.0878984e+02   4.1759539e+02   4.1518894e+02   4.1239079e+02   4.1380190e+02   4.1998599e+02   4.2532566e+02   4.2532566e+02   4.2655249e+02   4.3054047e+02   4.3519539e+02   4.3240958e+02   4.1768840e+02   3.9902683e+02   3.7425068e+02   3.5430297e+02   3.3845905e+02   3.3032273e+02   3.1595185e+02   3.1102566e+02   3.2398198e+02   3.3629730e+02   3.3948993e+02   3.3168582e+02   3.1228605e+02   2.8994602e+02   2.7081702e+02   2.6761354e+02   2.5766283e+02   2.7482809e+02   2.9585758e+02   3.1987067e+02   3.2812052e+02   3.1279152e+02   3.1443523e+02   3.2398185e+02   3.1900158e+02   3.0242860e+02   2.9252105e+02   2.9507940e+02   3.0484670e+02   3.2398365e+02   3.4004114e+02   3.4476988e+02   3.5009549e+02   3.6515232e+02   3.8502438e+02   4.0419979e+02   4.1067783e+02   4.1374481e+02   4.1293957e+02   4.0852105e+02   4.2525807e+02   4.5002212e+02   4.4811984e+02   4.7361033e+02   4.7999249e+02   4.8902196e+02   5.0019730e+02   5.0626613e+02   5.1711234e+02   5.3650344e+02   5.5368341e+02   5.6478031e+02   5.7793287e+02   5.9235860e+02   5.9941382e+02   6.0041382e+02   6.0386634e+02   6.0271653e+02   5.9814584e+02   5.9096986e+02   5.8798280e+02   5.9165132e+02   5.8813304e+02   5.8636857e+02   6.0048925e+02   6.1668862e+02   6.2221590e+02   6.1097603e+02   5.9500991e+02   5.8367254e+02   5.7166513e+02   5.5863481e+02
2.1005218e+02   2.2707193e+02   2.4561415e+02   2.7507671e+02   2.8593901e+02   2.7088363e+02   2.5335598e+02   2.3283918e+02   2.1590107e+02   2.0188067e+02   1.9193648e+02   1.8400967e+02   1.9014171e+02   2.0825259e+02   2.2973007e+02   2.4920638e+02   2.6571526e+02   2.8478650e+02   3.0319172e+02   3.1518041e+02   3.2818782e+02   3.4124337e+02   3.5724987e+02   3.7175268e+02   3.8781578e+02   4.0369320e+02   4.1314623e+02   4.2324230e+02   4.3475102e+02   4.4722818e+02   4.5570102e+02   4.6527456e+02   4.7524499e+02   4.8154758e+02   4.5999576e+02   4.4059532e+02   4.2558777e+02   4.1173577e+02   4.0115098e+02   3.8410180e+02   3.7171634e+02   3.6379745e+02   3.5265975e+02   3.3910670e+02   3.2228173e+02   3.0099695e+02   2.8735451e+02   2.9661553e+02   3.0978260e+02   3.1878816e+02   3.2829503e+02   3.3504146e+02   3.3538523e+02   3.2972345e+02   3.2127227e+02   3.1348962e+02   2.9704157e+02   2.9133948e+02   3.0319605e+02   3.2020716e+02   3.3647590e+02   3.4853931e+02   3.5536145e+02   3.6544798e+02   3.9095817e+02   4.0964552e+02   4.2305996e+02   4.1538702e+02   4.0080924e+02   3.8777620e+02   3.8712573e+02   3.8806266e+02   3.8285457e+02   3.6634455e+02   3.5340994e+02   3.4140741e+02   3.2890132e+02   3.1093967e+02   2.8977300e+02   2.6768020e+02   2.4776105e+02   2.4904799e+02   2.6113260e+02   2.7015244e+02   2.6734117e+02   2.5258750e+02   2.3449284e+02   2.1832070e+02   2.0680716e+02   2.0008727e+02   2.1958333e+02   2.4215269e+02   2.5276526e+02   2.5785902e+02   2.6504654e+02   2.7610848e+02   2.9580844e+02   3.1563515e+02   3.3950597e+02   3.6315556e+02   3.8285980e+02   4.0288308e+02   4.1569063e+02   4.2539474e+02   4.2679288e+02   4.2449342e+02   4.2569898e+02   4.3090824e+02   4.3570268e+02   4.3649342e+02   4.3770638e+02   4.4170824e+02   4.4267002e+02   4.3401432e+02   4.1623499e+02   3.9333567e+02   3.7176730e+02   3.5815160e+02   3.5426301e+02   3.4734264e+02   3.2560646e+02   3.2262421e+02   3.4377935e+02   3.5446355e+02   3.5241874e+02   3.3543287e+02   3.1145310e+02   2.8877713e+02   2.8511493e+02   2.8712193e+02   2.6712072e+02   2.7638790e+02   2.9952831e+02   3.2391437e+02   3.4188115e+02   3.3846832e+02   3.3813865e+02   3.4335965e+02   3.3466803e+02   3.1892544e+02   3.1302783e+02   3.2080058e+02   3.2790140e+02   3.3477395e+02   3.5606119e+02   3.7410132e+02   3.8219213e+02   3.9161672e+02   4.0526748e+02   4.1863416e+02   4.2970669e+02   4.3513430e+02   4.3398421e+02   4.3183490e+02   4.3454896e+02   4.5962398e+02   4.6832812e+02   4.8663987e+02   5.0004556e+02   5.1039927e+02   5.1840482e+02   5.2690906e+02   5.3772256e+02   5.4939070e+02   5.6390562e+02   5.7513441e+02   5.7816928e+02   5.7901316e+02   5.7901316e+02   5.7999738e+02   5.8582377e+02   5.9300293e+02   5.9583876e+02   5.9899709e+02   6.0399284e+02   6.0915658e+02   6.0732539e+02   6.0732651e+02   6.1652412e+02   6.2884704e+02   6.2678835e+02   6.0876329e+02   5.9210018e+02   5.7676584e+02   5.6310658e+02   5.5245102e+02
2.0020897e+02   2.2314479e+02   2.4317059e+02   2.7308889e+02   2.9361567e+02   2.7470412e+02   2.5969348e+02   2.4345858e+02   2.2740529e+02   2.1430585e+02   2.0460751e+02   1.9554267e+02   1.9009658e+02   2.0427002e+02   2.2341440e+02   2.4142551e+02   2.5843662e+02   2.7458602e+02   2.9268153e+02   3.0351659e+02   3.1556716e+02   3.3051179e+02   3.4757105e+02   3.6560159e+02   3.7868916e+02   3.8864477e+02   3.9857880e+02   4.0670736e+02   4.1771879e+02   4.2866323e+02   4.3772921e+02   4.4866873e+02   4.6274140e+02   4.7597527e+02   4.5748999e+02   4.3748650e+02   4.1646550e+02   3.9494993e+02   3.7807080e+02   3.6609437e+02   3.5586003e+02   3.4436009e+02   3.3440472e+02   3.2309766e+02   3.1106498e+02   3.0651311e+02   3.0407372e+02   3.0833526e+02   3.2582010e+02   3.3576467e+02   3.4575655e+02   3.5145789e+02   3.4932170e+02   3.4327120e+02   3.3547676e+02   3.3007368e+02   3.1370470e+02   2.9885154e+02   3.0938004e+02   3.2661831e+02   3.4731564e+02   3.6437293e+02   3.7749739e+02   3.7440770e+02   3.8914909e+02   4.1208134e+02   4.3031373e+02   4.3026118e+02   4.1998492e+02   4.0937933e+02   4.0638677e+02   4.0432148e+02   3.8994375e+02   3.6906644e+02   3.4947181e+02   3.3546255e+02   3.2131345e+02   3.0314033e+02   2.8305960e+02   2.6342446e+02   2.6298721e+02   2.7303796e+02   2.8276545e+02   2.7711207e+02   2.5943581e+02   2.4320329e+02   2.3470611e+02   2.2992348e+02   2.1693560e+02   2.0479671e+02   2.1539085e+02   2.3939202e+02   2.5577411e+02   2.6539662e+02   2.7240205e+02   2.8670453e+02   3.0258370e+02   3.1837458e+02   3.3227683e+02   3.5573325e+02   3.8317984e+02   4.0104924e+02   4.1605850e+02   4.3033224e+02   4.3515938e+02   4.3771556e+02   4.3941799e+02   4.4280083e+02   4.4680268e+02   4.4766118e+02   4.4788858e+02   4.5287600e+02   4.5122785e+02   4.4048560e+02   4.2103375e+02   3.9738056e+02   3.8083825e+02   3.7402135e+02   3.6864542e+02   3.5451782e+02   3.3506642e+02   3.4570204e+02   3.6053416e+02   3.6867725e+02   3.5967003e+02   3.3995486e+02   3.1373246e+02   2.9888906e+02   3.0408601e+02   3.0353915e+02   2.7992813e+02   2.8057674e+02   3.0389410e+02   3.2890892e+02   3.5203343e+02   3.6083511e+02   3.6183684e+02   3.6231264e+02   3.5371327e+02   3.4130539e+02   3.3467685e+02   3.3888211e+02   3.4320563e+02   3.5096379e+02   3.6893635e+02   3.8814795e+02   3.9876075e+02   4.0971935e+02   4.2205865e+02   4.3674829e+02   4.5125124e+02   4.5539013e+02   4.5668087e+02   4.5923478e+02   4.6275922e+02   4.7641218e+02   4.9411815e+02   5.0624270e+02   5.1759754e+02   5.2901812e+02   5.3823904e+02   5.4733318e+02   5.4995319e+02   5.5219877e+02   5.5263108e+02   5.5476673e+02   5.5704060e+02   5.5515153e+02   5.5194868e+02   5.5575799e+02   5.6432578e+02   5.7039725e+02   5.7910769e+02   5.8770276e+02   5.9964228e+02   6.0905066e+02   6.1442529e+02   6.1907887e+02   6.2794890e+02   6.3500000e+02   6.2464828e+02   6.0335889e+02   5.8023757e+02   5.6450672e+02   5.4758882e+02   5.3535102e+02
2.0914366e+02   2.2418626e+02   2.4967719e+02   2.7808347e+02   2.9350513e+02   2.8063402e+02   2.6673455e+02   2.5410585e+02   2.4080595e+02   2.2583905e+02   2.1850497e+02   2.0917359e+02   1.9751446e+02   2.0016342e+02   2.1534698e+02   2.3001394e+02   2.4763392e+02   2.6060244e+02   2.7227107e+02   2.8456433e+02   3.0030517e+02   3.1536257e+02   3.3272118e+02   3.4792922e+02   3.5810337e+02   3.6614298e+02   3.7616954e+02   3.8651988e+02   3.9592999e+02   4.0655403e+02   4.1811194e+02   4.3725860e+02   4.6111384e+02   4.7274426e+02   4.5486023e+02   4.3775409e+02   4.2435301e+02   4.0509386e+02   3.8771696e+02   3.7175752e+02   3.5383531e+02   3.4072158e+02   3.3540796e+02   3.3283743e+02   3.2920136e+02   3.2579985e+02   3.1741662e+02   3.1440565e+02   3.3332047e+02   3.4750711e+02   3.6160214e+02   3.6715680e+02   3.6461784e+02   3.5750673e+02   3.4971969e+02   3.4434386e+02   3.3001131e+02   3.1228569e+02   3.1283246e+02   3.3019542e+02   3.5160185e+02   3.6805442e+02   3.8598616e+02   3.9552175e+02   3.9269730e+02   4.1233109e+02   4.3407129e+02   4.4502561e+02   4.3893600e+02   4.3133369e+02   4.2420906e+02   4.0650018e+02   3.8417290e+02   3.6343412e+02   3.4187856e+02   3.2352427e+02   3.0790526e+02   2.9237103e+02   2.7891964e+02   2.7602591e+02   2.8401910e+02   2.9299631e+02   2.8284373e+02   2.6505006e+02   2.5200797e+02   2.5213728e+02   2.5736609e+02   2.4411019e+02   2.2453905e+02   2.1327144e+02   2.1609737e+02   2.2725982e+02   2.4850070e+02   2.6199435e+02   2.7381947e+02   2.8916930e+02   3.0960886e+02   3.2657865e+02   3.4195370e+02   3.5954612e+02   3.7687485e+02   3.9251832e+02   4.0596365e+02   4.2024421e+02   4.3371004e+02   4.4211613e+02   4.4664654e+02   4.5158805e+02   4.5767242e+02   4.5796348e+02   4.5831033e+02   4.6194639e+02   4.6108158e+02   4.4683616e+02   4.2657058e+02   4.1008363e+02   3.9903041e+02   3.9019024e+02   3.7336491e+02   3.5523694e+02   3.5499924e+02   3.6509298e+02   3.7826608e+02   3.8254725e+02   3.6761617e+02   3.4228718e+02   3.1988220e+02   3.2014678e+02   3.2438762e+02   3.1416241e+02   2.9542632e+02   2.9518558e+02   3.1333645e+02   3.3641412e+02   3.5937018e+02   3.7643060e+02   3.8191901e+02   3.8202914e+02   3.7659453e+02   3.6795368e+02   3.6531654e+02   3.6585263e+02   3.6674077e+02   3.7438275e+02   3.8557437e+02   4.0275980e+02   4.1594747e+02   4.2648612e+02   4.3739548e+02   4.4803642e+02   4.5802454e+02   4.6364251e+02   4.6426842e+02   4.6685361e+02   4.7666930e+02   4.9377875e+02   5.0792417e+02   5.2129737e+02   5.3049329e+02   5.3447476e+02   5.3674503e+02   5.3874688e+02   5.3813021e+02   5.3549415e+02   5.3369078e+02   5.3412008e+02   5.3780526e+02   5.3268593e+02   5.2908021e+02   5.3924471e+02   5.4718185e+02   5.4926238e+02   5.5975058e+02   5.7457399e+02   5.8598118e+02   5.9088684e+02   5.9543411e+02   6.0171901e+02   6.1859677e+02   6.3275294e+02   6.2152768e+02   5.9866020e+02   5.7494172e+02   5.5813191e+02   5.3945263e+02   5.2149522e+02
2.1586784e+02   2.3506118e+02   2.5347393e+02   2.7048458e+02   2.8286261e+02   2.8893744e+02   2.7871457e+02   2.6670716e+02   2.5491483e+02   2.4411110e+02   2.3693787e+02   2.2887490e+02   2.1584233e+02   2.0317741e+02   2.0829221e+02   2.1815887e+02   2.3179971e+02   2.4476823e+02   2.5657498e+02   2.6739064e+02   2.8207441e+02   2.9885567e+02   3.1501595e+02   3.2537320e+02   3.3536835e+02   3.4492818e+02   3.5348275e+02   3.6773638e+02   3.8373120e+02   3.9816449e+02   4.1698757e+02   4.4001140e+02   4.6034259e+02   4.7385559e+02   4.6454889e+02   4.5057383e+02   4.4137097e+02   4.2203863e+02   4.0185660e+02   3.7836450e+02   3.5541667e+02   3.4733355e+02   3.5456881e+02   3.5639474e+02   3.5530400e+02   3.5104295e+02   3.3398395e+02   3.2099513e+02   3.4106537e+02   3.5979737e+02   3.7750292e+02   3.8199671e+02   3.7986997e+02   3.7447383e+02   3.6669086e+02   3.5584247e+02   3.4003387e+02   3.2190980e+02   3.1626601e+02   3.3369993e+02   3.5512025e+02   3.7210683e+02   3.8934313e+02   4.0790239e+02   4.1864658e+02   4.1701072e+02   4.3582481e+02   4.5498443e+02   4.5708178e+02   4.4283146e+02   4.2451873e+02   3.9853596e+02   3.7400514e+02   3.5510764e+02   3.3669484e+02   3.1802242e+02   2.9909178e+02   2.8863536e+02   2.8899482e+02   2.9770877e+02   3.0766746e+02   2.9269726e+02   2.7185333e+02   2.6775283e+02   2.7422109e+02   2.7646162e+02   2.7305323e+02   2.5140609e+02   2.3136469e+02   2.2191190e+02   2.2877132e+02   2.2826871e+02   2.3689543e+02   2.5494576e+02   2.6391453e+02   2.7232127e+02   2.9647568e+02   3.1632551e+02   3.3295699e+02   3.4796625e+02   3.6233160e+02   3.7778847e+02   3.8999654e+02   4.0340395e+02   4.2037456e+02   4.3473940e+02   4.4878098e+02   4.6022766e+02   4.6676595e+02   4.6639803e+02   4.6661099e+02   4.6961284e+02   4.6594868e+02   4.5310478e+02   4.4013645e+02   4.2730519e+02   4.1554340e+02   4.0128517e+02   3.8695373e+02   3.8240526e+02   3.8139145e+02   3.8358640e+02   3.9489963e+02   3.9281153e+02   3.7642928e+02   3.5389376e+02   3.4125216e+02   3.4313004e+02   3.4405766e+02   3.3015400e+02   3.1464309e+02   3.1085465e+02   3.2731827e+02   3.4378198e+02   3.6599922e+02   3.8475292e+02   4.0006522e+02   4.0066815e+02   3.9247810e+02   3.8832873e+02   3.8759539e+02   3.8859539e+02   3.8986762e+02   3.9261827e+02   4.0577437e+02   4.2018494e+02   4.2500000e+02   4.2560197e+02   4.2862681e+02   4.3691607e+02   4.4592108e+02   4.5029218e+02   4.5149469e+02   4.5582236e+02   4.6730956e+02   4.8637975e+02   5.0409271e+02   5.1466349e+02   5.1740461e+02   5.1710090e+02   5.1626526e+02   5.1771201e+02   5.1729600e+02   5.1485395e+02   5.1520395e+02   5.1577144e+02   5.1740789e+02   5.1362415e+02   5.1176703e+02   5.1997325e+02   5.2214885e+02   5.2509739e+02   5.4277259e+02   5.5898992e+02   5.6740457e+02   5.6900658e+02   5.7507940e+02   5.8795788e+02   6.0824508e+02   6.2881377e+02   6.2026928e+02   6.0018757e+02   5.7897395e+02   5.5815387e+02   5.3782977e+02   5.2502175e+02
2.0664677e+02   2.2165819e+02   2.3791632e+02   2.5737884e+02   2.7561754e+02   2.8733835e+02   2.8892801e+02   2.7638208e+02   2.6611072e+02   2.5913855e+02   2.5513670e+02   2.5028575e+02   2.3747286e+02   2.2282206e+02   2.2059508e+02   2.1842578e+02   2.2179724e+02   2.3168769e+02   2.4351428e+02   2.5529064e+02   2.6852202e+02   2.8407627e+02   2.9698553e+02   3.0677026e+02   3.1881524e+02   3.3351067e+02   3.4834680e+02   3.7159309e+02   3.9299693e+02   4.1000804e+02   4.2901915e+02   4.4760009e+02   4.6404128e+02   4.7857375e+02   4.7588480e+02   4.5969805e+02   4.4255462e+02   4.2104943e+02   4.0144993e+02   3.7619673e+02   3.6145559e+02   3.6788274e+02   3.7795019e+02   3.7784246e+02   3.7619475e+02   3.6451808e+02   3.4754334e+02   3.2939063e+02   3.4859576e+02   3.6729868e+02   3.8523166e+02   3.9673397e+02   3.9529181e+02   3.8984225e+02   3.7938528e+02   3.6414313e+02   3.4667505e+02   3.2612135e+02   3.2293202e+02   3.3571111e+02   3.5560970e+02   3.7661111e+02   3.9264927e+02   4.1211438e+02   4.3200666e+02   4.3942756e+02   4.4632729e+02   4.6120096e+02   4.6422037e+02   4.4513660e+02   4.1908944e+02   3.9390685e+02   3.7080016e+02   3.5440861e+02   3.3655394e+02   3.1696296e+02   2.9885276e+02   2.9746818e+02   3.0601218e+02   3.1925825e+02   3.1632728e+02   2.9119226e+02   2.8165117e+02   2.8776276e+02   2.9232895e+02   2.9171469e+02   2.7898889e+02   2.5586993e+02   2.3668490e+02   2.3276141e+02   2.4936538e+02   2.4491915e+02   2.3638680e+02   2.5235382e+02   2.6131711e+02   2.6903855e+02   2.8337998e+02   3.0034665e+02   3.1862118e+02   3.3458233e+02   3.4649960e+02   3.6253870e+02   3.7892232e+02   3.9469868e+02   4.1348557e+02   4.3620124e+02   4.5411704e+02   4.6894043e+02   4.7963168e+02   4.8014750e+02   4.7995151e+02   4.7998161e+02   4.7673114e+02   4.6896033e+02   4.6034684e+02   4.4445673e+02   4.3026818e+02   4.1923103e+02   4.1440760e+02   4.1040063e+02   4.0739878e+02   4.0732982e+02   4.1216218e+02   4.0598343e+02   3.9243582e+02   3.7890804e+02   3.6855437e+02   3.6563026e+02   3.6116589e+02   3.4546257e+02   3.3386316e+02   3.2681191e+02   3.4043299e+02   3.6016316e+02   3.8072831e+02   3.9365965e+02   4.0713511e+02   4.0889677e+02   4.0965756e+02   4.1147500e+02   4.1253493e+02   4.1172418e+02   4.0993660e+02   4.0695470e+02   4.1921932e+02   4.2387434e+02   4.1501832e+02   4.0662247e+02   4.0670594e+02   4.1711111e+02   4.2564407e+02   4.2690395e+02   4.2826240e+02   4.4012501e+02   4.5952675e+02   4.7617339e+02   4.8733260e+02   4.9404092e+02   4.9611485e+02   4.9653190e+02   4.9720800e+02   4.9829522e+02   4.9422135e+02   4.9391950e+02   4.9636974e+02   4.9560263e+02   4.9445513e+02   4.9213684e+02   4.9276472e+02   5.0001418e+02   4.9912114e+02   5.0811701e+02   5.2647442e+02   5.4028186e+02   5.4570122e+02   5.4934693e+02   5.6146855e+02   5.8369630e+02   6.0755714e+02   6.2825512e+02   6.2617521e+02   6.0828757e+02   5.8750750e+02   5.6646037e+02   5.5026586e+02   5.3513531e+02
1.8971097e+02   2.0640088e+02   2.2609572e+02   2.4607539e+02   2.6041265e+02   2.7171162e+02   2.7836138e+02   2.7997037e+02   2.7697527e+02   2.7364849e+02   2.7030446e+02   2.6693942e+02   2.5786226e+02   2.4629825e+02   2.4327294e+02   2.3929454e+02   2.3593388e+02   2.3369297e+02   2.3809939e+02   2.4681526e+02   2.5989859e+02   2.7455889e+02   2.8623398e+02   2.9859281e+02   3.1665577e+02   3.3599978e+02   3.5645860e+02   3.8047342e+02   4.0269956e+02   4.2041908e+02   4.4245239e+02   4.5726601e+02   4.6962982e+02   4.8000000e+02   4.7054323e+02   4.5158092e+02   4.3454510e+02   4.1478977e+02   3.9380331e+02   3.7708840e+02   3.7799781e+02   3.8892003e+02   3.9599803e+02   3.9351700e+02   3.8633309e+02   3.7204853e+02   3.5148289e+02   3.3798680e+02   3.5392178e+02   3.7233309e+02   3.9327690e+02   4.0731045e+02   4.1119147e+02   4.0383103e+02   3.8938023e+02   3.7148107e+02   3.4861810e+02   3.3492275e+02   3.3592093e+02   3.3714052e+02   3.5129652e+02   3.7514834e+02   3.9374444e+02   4.1554793e+02   4.3731250e+02   4.5472113e+02   4.6259520e+02   4.7059890e+02   4.6843169e+02   4.4785799e+02   4.2264790e+02   4.0106110e+02   3.8024037e+02   3.5965599e+02   3.3716318e+02   3.1845607e+02   3.1058220e+02   3.1848343e+02   3.1999766e+02   3.3294690e+02   3.1970642e+02   2.9883932e+02   3.0281425e+02   3.0982744e+02   3.1028064e+02   2.9633355e+02   2.7732244e+02   2.5841703e+02   2.4398779e+02   2.4042015e+02   2.5699622e+02   2.5922827e+02   2.4491318e+02   2.5136191e+02   2.6709856e+02   2.8134345e+02   2.9249622e+02   3.0365380e+02   3.2501601e+02   3.3956451e+02   3.5449825e+02   3.7377756e+02   3.8898942e+02   4.0579842e+02   4.2661068e+02   4.4481429e+02   4.5581389e+02   4.6061080e+02   4.6648963e+02   4.7498697e+02   4.8416393e+02   4.9050114e+02   4.9397103e+02   4.8545816e+02   4.7426473e+02   4.6099890e+02   4.4732646e+02   4.3839626e+02   4.3287668e+02   4.2894957e+02   4.2320348e+02   4.2254434e+02   4.2492155e+02   4.2105054e+02   4.1004313e+02   3.9919616e+02   3.9117995e+02   3.8625778e+02   3.7851120e+02   3.6758713e+02   3.5891447e+02   3.5033257e+02   3.5993711e+02   3.7852428e+02   3.9027601e+02   3.9849449e+02   3.9297284e+02   3.9001975e+02   3.9604164e+02   4.0413553e+02   4.1039990e+02   4.0706450e+02   4.0009469e+02   3.9203439e+02   4.0077212e+02   4.0935376e+02   3.9827027e+02   3.8577256e+02   3.8399651e+02   4.0195200e+02   4.0866842e+02   4.0886095e+02   4.1655115e+02   4.3518670e+02   4.5155129e+02   4.6059391e+02   4.6759761e+02   4.7660132e+02   4.7869946e+02   4.7679891e+02   4.7584406e+02   4.8030872e+02   4.7607354e+02   4.7354221e+02   4.7554344e+02   4.7710632e+02   4.7491258e+02   4.6968280e+02   4.7208247e+02   4.7653894e+02   4.8131591e+02   4.9462332e+02   5.1175465e+02   5.1966058e+02   5.2688312e+02   5.4055526e+02   5.6079099e+02   5.8335926e+02   6.0615770e+02   6.2468214e+02   6.2754379e+02   6.1925468e+02   5.9857461e+02   5.8014182e+02   5.6458158e+02   5.5119526e+02
1.7855463e+02   1.9746667e+02   2.1425185e+02   2.2715926e+02   2.3916500e+02   2.4927222e+02   2.6020185e+02   2.7455333e+02   2.8295537e+02   2.8782852e+02   2.8787222e+02   2.8396741e+02   2.7800556e+02   2.6863333e+02   2.6366481e+02   2.6048889e+02   2.5251833e+02   2.4655519e+02   2.4445315e+02   2.4518889e+02   2.5512685e+02   2.6904074e+02   2.8300500e+02   2.9630593e+02   3.1437056e+02   3.3528889e+02   3.5730185e+02   3.8043333e+02   4.0411167e+02   4.2123444e+02   4.4482407e+02   4.5573333e+02   4.6387407e+02   4.7461407e+02   4.6530889e+02   4.4654815e+02   4.2837611e+02   4.0735556e+02   3.8970537e+02   3.8893407e+02   3.9985000e+02   4.0985556e+02   4.1560000e+02   4.0923556e+02   3.9403722e+02   3.7866111e+02   3.5553500e+02   3.4368519e+02   3.5769074e+02   3.7380000e+02   4.0032778e+02   4.1452519e+02   4.2500500e+02   4.1395222e+02   3.9663519e+02   3.7510000e+02   3.4877074e+02   3.4835926e+02   3.5488333e+02   3.4495926e+02   3.5313056e+02   3.7399000e+02   3.9816852e+02   4.2009407e+02   4.4532222e+02   4.6716111e+02   4.7796296e+02   4.8421333e+02   4.6871852e+02   4.4569000e+02   4.2258889e+02   3.9866000e+02   3.7241667e+02   3.4758000e+02   3.4303167e+02   3.3559630e+02   3.2607000e+02   3.3807074e+02   3.4250000e+02   3.4059333e+02   3.2498796e+02   3.1617778e+02   3.2608333e+02   3.2924148e+02   3.1614630e+02   2.9428333e+02   2.7625741e+02   2.6351852e+02   2.5293833e+02   2.4878296e+02   2.6553796e+02   2.7459333e+02   2.5340185e+02   2.5227074e+02   2.7101833e+02   2.9102963e+02   3.0878556e+02   3.2124444e+02   3.3423463e+02   3.4828222e+02   3.6586667e+02   3.8530111e+02   4.0041056e+02   4.1758000e+02   4.3525056e+02   4.4097593e+02   4.4030556e+02   4.4238667e+02   4.4653944e+02   4.5825556e+02   4.7072593e+02   4.7640815e+02   4.8443333e+02   4.8690333e+02   4.8278296e+02   4.7335556e+02   4.6233648e+02   4.4897370e+02   4.3674833e+02   4.2385185e+02   4.1108241e+02   4.0836667e+02   4.1437037e+02   4.2239778e+02   4.2500000e+02   4.1890185e+02   4.1211481e+02   4.0586667e+02   3.9586111e+02   3.8788037e+02   3.8235000e+02   3.8037333e+02   3.8336111e+02   3.9299000e+02   3.9405944e+02   3.8423704e+02   3.7079444e+02   3.6101037e+02   3.7370037e+02   3.8386000e+02   3.9032685e+02   3.8748889e+02   3.7723833e+02   3.7212222e+02   3.8363130e+02   3.9325000e+02   3.8248148e+02   3.6847407e+02   3.6594500e+02   3.8555519e+02   3.8822870e+02   3.9582222e+02   4.1464444e+02   4.3256778e+02   4.4056500e+02   4.4342593e+02   4.4956278e+02   4.5937000e+02   4.5869815e+02   4.5596963e+02   4.5527500e+02   4.5780000e+02   4.5662167e+02   4.5510000e+02   4.5600000e+02   4.5700000e+02   4.5668333e+02   4.5139481e+02   4.4933204e+02   4.5529889e+02   4.6479630e+02   4.7709037e+02   4.9384889e+02   5.0265148e+02   5.2075352e+02   5.4113333e+02   5.6017593e+02   5.7711889e+02   5.9316056e+02   6.0438815e+02   6.1431296e+02   6.2493444e+02   6.1558759e+02   5.9727259e+02   5.8520000e+02   5.7724815e+02
